ply
format ascii 1.0
comment Generated by the sample_export_ply.py script 4.24.0.1201
element vertex 1391
property float x
property float y
property float z
property uchar red
property uchar green
property uchar blue
element face 0
property list uchar int vertex_index
end_header
-0.3348 0.097353 0.43873 17 17 17
-0.330855 0.09694 0.43842 19 19 19
-0.325499 0.096104 0.43615 32 32 32
-0.322156 0.095854 0.4365 39 39 39
-0.319563 0.095825 0.43783 60 60 60
-0.315973 0.095495 0.43776 27 27 27
-0.312511 0.095198 0.43781 18 18 18
-0.308387 0.094694 0.43687 21 21 21
-0.30447 0.094245 0.43616 27 27 27
-0.298042 0.093006 0.43174 55 55 55
-0.296007 0.093128 0.43361 41 41 41
-0.294806 0.093517 0.43671 20 20 20
-0.291891 0.093364 0.43727 21 21 21
-0.288398 0.093022 0.43691 25 25 25
-0.283545 0.092232 0.43442 40 40 40
-0.281228 0.092261 0.43576 48 48 48
-0.279579 0.092511 0.43812 65 65 65
-0.276868 0.092411 0.43882 26 26 26
-0.272812 0.091857 0.43733 20 20 20
-0.269126 0.091418 0.43637 21 21 21
-0.26552 0.090999 0.43547 22 22 22
-0.2615 0.09043 0.43382 26 26 26
-0.258396 0.090169 0.43363 32 32 32
-0.255484 0.089972 0.43373 24 24 24
-0.252649 0.089798 0.43392 24 24 24
-0.250241 0.089775 0.43481 26 26 26
-0.247056 0.089469 0.43433 27 27 27
-0.244353 0.089334 0.43465 45 45 45
-0.24293 0.089668 0.43724 42 42 42
-0.241208 0.089898 0.43932 69 69 69
-0.239111 0.089992 0.44072 39 39 39
-0.234473 0.089121 0.43738 27 27 27
-0.230439 0.088465 0.43506 27 27 27
-0.227532 0.088232 0.4348 29 29 29
-0.224511 0.087951 0.43428 34 34 34
-0.221219 0.087556 0.43318 48 48 48
-0.218622 0.087431 0.4334 72 72 72
-0.21639 0.08745 0.43433 33 33 33
-0.213932 0.087378 0.43478 30 30 30
-0.210367 0.086847 0.43294 32 32 32
-0.207836 0.086737 0.43317 34 34 34
-0.205415 0.08667 0.43361 46 46 46
-0.204778 0.087363 0.43785 39 39 39
-0.202797 0.087492 0.43925 58 58 58
-0.200269 0.087385 0.43946 64 64 64
-0.197853 0.087325 0.43989 37 37 37
-0.193257 0.08629 0.43539 37 37 37
-0.19034 0.08599 0.43457 39 39 39
-0.187201 0.08558 0.43319 42 42 42
-0.18464 0.085429 0.4331 47 47 47
-0.181813 0.085148 0.43234 56 56 56
-0.179739 0.085219 0.43335 73 73 73
-0.177825 0.085368 0.43475 51 51 51
-0.175465 0.085304 0.43505 46 46 46
-0.172634 0.085006 0.43415 48 48 48
-0.169967 0.084782 0.43362 50 50 50
-0.16692 0.08436 0.43206 52 52 52
-0.164413 0.084204 0.43184 59 59 59
-0.165005 0.085652 0.43985 41 41 41
-0.16275 0.085642 0.44038 76 76 76
-0.160188 0.085467 0.44004 65 65 65
-0.157661 0.085307 0.43977 49 49 49
-0.15226 0.083565 0.43133 52 52 52
-0.150076 0.083563 0.43185 53 53 53
-0.147776 0.083496 0.43201 55 55 55
-0.145736 0.083576 0.43294 60 60 60
-0.143866 0.083758 0.43437 64 64 64
-0.141909 0.083893 0.43557 69 69 69
-0.139969 0.084043 0.43683 83 83 83
-0.137456 0.083848 0.43629 55 55 55
-0.133967 0.083042 0.43256 61 61 61
-0.131559 0.082891 0.43222 65 65 65
-0.129245 0.082795 0.43216 70 70 70
-0.12693 0.082695 0.43207 76 76 76
-0.125046 0.082877 0.43345 74 74 74
-0.124872 0.084219 0.4409 51 51 51
-0.122553 0.084136 0.44088 105 105 105
-0.120613 0.084315 0.44223 93 93 93
-0.118464 0.084352 0.44282 73 73 73
-0.1138 0.082566 0.43383 65 65 65
-0.111153 0.082203 0.43229 81 81 81
-0.108764 0.08202 0.4317 81 81 81
-0.106675 0.082059 0.43226 88 88 88
-0.104533 0.08206 0.43262 89 89 89
-0.102173 0.081886 0.43204 93 93 93
-0.099698 0.08161 0.43092 80 80 80
-0.097742 0.081756 0.43202 83 83 83
-0.095553 0.081709 0.43209 98 98 98
-0.093052 0.081388 0.4307 101 101 101
-0.090898 0.081361 0.43086 108 108 108
-0.088772 0.08136 0.43114 106 106 106
-0.086721 0.081429 0.4318 110 110 110
-0.084694 0.081524 0.43258 94 94 94
-0.08447 0.083404 0.44284 61 61 61
-0.082107 0.083217 0.44212 119 119 119
-0.079806 0.083084 0.44167 117 117 117
-0.077632 0.083078 0.44189 99 99 99
-0.073904 0.081362 0.43301 79 79 79
-0.071375 0.080903 0.4308 118 118 118
-0.069069 0.080678 0.42983 121 121 121
-0.066934 0.080644 0.42987 128 128 128
-0.064844 0.080663 0.43018 139 139 139
-0.06278 0.080717 0.43068 127 127 127
-0.061208 0.08143 0.43468 91 91 91
-0.059099 0.081453 0.435 138 138 138
-0.057197 0.081774 0.4369 103 103 103
-0.054308 0.080656 0.4311 128 128 128
-0.052199 0.080652 0.43125 141 141 141
-0.050074 0.08062 0.43125 148 148 148
-0.047921 0.08054 0.43098 162 162 162
-0.045852 0.080599 0.43144 157 157 157
-0.044086 0.081224 0.43493 103 103 103
-0.042677 0.082602 0.44245 112 112 112
-0.040446 0.08245 0.44177 155 155 155
-0.038358 0.082591 0.44265 146 146 146
-0.036249 0.082699 0.44335 116 116 116
-0.033294 0.080771 0.43312 109 109 109
-0.031005 0.080303 0.43071 163 163 163
-0.028905 0.080296 0.43077 166 166 166
-0.026801 0.080275 0.43075 169 169 169
-0.024657 0.08012 0.42999 178 178 178
-0.022521 0.079965 0.42924 168 168 168
-0.020676 0.080914 0.4344 116 116 116
-0.018563 0.080916 0.43447 169 169 169
-0.016472 0.081025 0.43511 113 113 113
-0.014209 0.080192 0.43069 166 166 166
-0.012108 0.080145 0.43048 182 182 182
-0.010036 0.080313 0.43141 181 181 181
-0.007905 0.07997 0.4296 195 195 195
-0.005817 0.079974 0.42964 191 191 191
-0.003745 0.080337 0.4316 136 136 136
-0.001686 0.082243 0.44185 134 134 134
0.000462 0.082272 0.44201 171 171 171
0.002614 0.082394 0.44266 156 156 156
0.004775 0.082564 0.44356 112 112 112
0.006914 0.082351 0.4424 66 66 66
0.008903 0.08089 0.43453 100 100 100
0.010986 0.080674 0.43334 89 89 89
0.013114 0.080806 0.434 56 56 56
0.015157 0.080448 0.43204 52 52 52
0.017249 0.080404 0.43175 49 49 49
0.019433 0.080756 0.43358 50 50 50
0.021538 0.08074 0.43343 86 86 86
0.02356 0.080446 0.43177 90 90 90
0.025512 0.07998 0.4292 93 93 93
0.027699 0.080266 0.43064 59 59 59
0.029985 0.080775 0.43329 29 29 29
0.032423 0.081603 0.43762 15 15 15
0.034581 0.081668 0.43786 7 7 7
0.036983 0.082265 0.44095 6 6 6
0.039434 0.082902 0.44424 5 5 5
0.041804 0.083311 0.4463 4 4 4
0.043543 0.082484 0.44173 5 5 5
0.045236 0.081652 0.43714 4 4 4
0.047729 0.082275 0.44032 5 5 5
0.04999 0.08246 0.44115 4 4 4
0.05285 0.083578 0.44697 4 4 4
0.055642 0.084503 0.45174 4 4 4
0.057619 0.084167 0.44976 5 5 5
0.058962 0.082964 0.44315 6 6 6
0.0609 0.082654 0.4413 9 9 9
0.062443 0.081847 0.43679 13 13 13
0.064491 0.081735 0.43599 28 28 28
0.066572 0.081669 0.43542 48 48 48
0.068984 0.082001 0.43697 47 47 47
0.071789 0.082766 0.44082 39 39 39
0.074257 0.083109 0.44241 31 31 31
0.076367 0.083043 0.44181 32 32 32
0.079299 0.083851 0.44585 35 35 35
0.081545 0.083909 0.4459 45 45 45
0.083619 0.083792 0.44501 71 71 71
0.085428 0.083422 0.44276 102 102 102
0.087441 0.083265 0.44165 64 64 64
0.088825 0.08253 0.43746 86 86 86
0.090065 0.0817 0.43277 119 119 119
0.092119 0.08163 0.4321 113 113 113
0.094287 0.081661 0.43196 105 105 105
0.096568 0.081787 0.43231 90 90 90
0.099144 0.082152 0.43391 84 84 84
0.10191 0.082656 0.43624 89 89 89
0.103701 0.082364 0.43436 106 106 106
0.105675 0.082227 0.43329 83 83 83
0.107551 0.08202 0.43184 91 91 91
0.109575 0.081932 0.43102 85 85 85
0.111929 0.08209 0.43147 82 82 82
0.114216 0.082193 0.43164 76 76 76
0.11688 0.082559 0.43317 64 64 64
0.120352 0.083471 0.43756 61 61 61
0.123411 0.084071 0.44029 75 75 75
0.125354 0.083902 0.43898 77 77 77
0.12636 0.083123 0.43448 37 37 37
0.124599 0.080581 0.42077 40 40 40
0.125902 0.080071 0.41769 27 27 27
0 0 0 0 0 0
0 0 0 0 0 0
0 0 0 0 0 0
0 0 0 0 0 0
0 0 0 0 0 0
0 0 0 0 0 0
0 0 0 0 0 0
0 0 0 0 0 0
0 0 0 0 0 0
0 0 0 0 0 0
0 0 0 0 0 0
0 0 0 0 0 0
0 0 0 0 0 0
0 0 0 0 0 0
0 0 0 0 0 0
0 0 0 0 0 0
0 0 0 0 0 0
0 0 0 0 0 0
0 0 0 0 0 0
0.054913 0.026218 0.1334 25 25 25
0.054075 0.0255 0.12955 31 31 31
0.054609 0.025438 0.12904 38 38 38
0.055583 0.025581 0.12956 40 40 40
0.05605 0.02549 0.1289 32 32 32
0.05701 0.025622 0.12936 21 21 21
0.058953 0.026188 0.132 16 16 16
0.06037 0.026511 0.13341 17 17 17
0.062809 0.027269 0.13699 15 15 15
0.066089 0.028372 0.14229 13 13 13
0.068926 0.029261 0.14649 9 9 9
0.076448 0.032099 0.16042 8 8 8
0.084672 0.035167 0.17543 7 7 7
0.088963 0.036553 0.18201 7 7 7
0.092072 0.037429 0.18603 7 7 7
0.094692 0.03809 0.18895 7 7 7
0.095424 0.037986 0.18807 7 7 7
0.094106 0.037076 0.18321 6 6 6
0.092774 0.036179 0.17842 7 7 7
0.092822 0.035833 0.17636 7 7 7
0.093311 0.035663 0.17516 8 8 8
0.087786 0.03322 0.16282 8 8 8
0.083437 0.031265 0.15291 9 9 9
0.080333 0.029811 0.14548 8 8 8
0 0 0 0 0 0
0.057257 0.020844 0.10127 27 27 27
0.057961 0.020902 0.10132 33 33 33
0.059028 0.021088 0.10199 33 33 33
0.062319 0.022058 0.10643 20 20 20
0.070871 0.024856 0.11964 14 14 14
0.0712 0.024745 0.11882 13 13 13
0.071377 0.024583 0.11775 14 14 14
0.070614 0.024104 0.11516 15 15 15
0.069794 0.023614 0.11253 17 17 17
0.068792 0.023071 0.10966 17 17 17
0.068989 0.022937 0.10873 18 18 18
0.068313 0.022517 0.10645 18 18 18
0.066391 0.021697 0.10229 18 18 18
0.064263 0.020824 0.0979 19 19 19
0.065339 0.020995 0.09843 18 18 18
0.064764 0.020637 0.09647 19 19 19
0.065126 0.020581 0.09593 19 19 19
0.065423 0.020506 0.0953 20 20 20
0.06539 0.02033 0.09419 19 19 19
0.065353 0.020155 0.09309 20 20 20
0.06558 0.020064 0.09237 20 20 20
0.066092 0.02006 0.09206 20 20 20
0.066771 0.020107 0.09198 20 20 20
0.064705 0.019333 0.08814 19 19 19
0.063077 0.018701 0.08497 19 19 19
0.063911 0.018803 0.08514 20 20 20
0.06376 0.018616 0.084 20 20 20
0.066414 0.019245 0.08652 21 21 21
0.065627 0.018874 0.08455 21 21 21
0.064327 0.018362 0.08195 22 22 22
0.063094 0.017877 0.07949 24 24 24
0.062416 0.017556 0.07775 27 27 27
0.053883 0.015046 0.06638 79 79 79
0.054304 0.015054 0.06615 97 97 97
0.053672 0.014771 0.06464 137 137 137
0.054216 0.014815 0.06456 136 136 136
0.054588 0.014811 0.06428 178 178 178
0.055226 0.014879 0.06429 134 134 134
0.055937 0.014966 0.06438 107 107 107
0.061749 0.016406 0.07027 39 39 39
0.061142 0.016134 0.06878 33 33 33
0.060468 0.015847 0.06725 33 33 33
0.060894 0.01585 0.06694 33 33 33
0.060466 0.015633 0.06571 34 34 34
0.060373 0.015505 0.06485 35 35 35
0.061361 0.015654 0.06514 34 34 34
0.060378 0.015301 0.06335 35 35 35
0.061051 0.015371 0.06331 34 34 34
0.061264 0.015324 0.06278 36 36 36
0.061467 0.015275 0.06224 36 36 36
0.061324 0.015142 0.06136 35 35 35
0.061194 0.015013 0.0605 36 36 36
0.060703 0.014798 0.05929 37 37 37
0.060603 0.014681 0.05848 37 37 37
0.061389 0.014778 0.05852 37 37 37
0.062144 0.014867 0.05852 37 37 37
0.062186 0.014785 0.05784 36 36 36
0.061535 0.014541 0.05653 37 37 37
0.061429 0.014427 0.05574 37 37 37
0.061834 0.014434 0.05541 37 37 37
0.062011 0.014388 0.05488 37 37 37
0.06261 0.01444 0.05472 37 37 37
0.062091 0.014235 0.05358 37 37 37
0.062472 0.014238 0.05323 37 37 37
0.062156 0.014083 0.05229 38 38 38
0.061684 0.013894 0.05124 39 39 39
0.061014 0.013663 0.05004 37 37 37
0.0604 0.013448 0.04891 38 38 38
0.062714 0.013883 0.05013 38 38 38
0.062618 0.013782 0.04942 36 36 36
-0.986309 0.219646 0.75468 0 0 0
-0.996092 0.223077 0.77194 1 1 1
-0.998625 0.224913 0.78382 0 0 0
-1.001592 0.226869 0.79623 1 1 1
-0.984013 0.224168 0.79228 1 1 1
-0.994448 0.227854 0.81093 1 1 1
-0.973818 0.224424 0.80426 1 1 1
-0.975005 0.226012 0.81551 1 1 1
-0.951017 0.221749 0.80558 1 1 1
-0.92976 0.218076 0.79757 1 1 1
-0.911687 0.215111 0.79197 1 1 1
-0.885163 0.210106 0.77864 1 1 1
-0.878876 0.209872 0.78283 1 1 1
-0.858453 0.206239 0.77422 1 1 1
-0.847746 0.204912 0.7741 1 1 1
-0.836028 0.203322 0.77288 1 1 1
-0.817776 0.200113 0.76536 1 1 1
-0.812352 0.200024 0.76964 0 0 0
-0.803908 0.199186 0.77097 1 1 1
-0.80985 0.201924 0.78613 1 1 1
-0.801902 0.201212 0.78786 1 1 1
0 0 0 0 0 0
0 0 0 0 0 0
0 0 0 0 0 0
-0.416057 0.107118 0.42873 4 4 4
-0.412029 0.106778 0.42961 9 9 9
-0.406932 0.106154 0.42931 11 11 11
-0.403559 0.105974 0.43075 18 18 18
-0.399303 0.105559 0.43119 27 27 27
-0.396978 0.105652 0.43368 43 43 43
-0.392899 0.105277 0.4342 16 16 16
-0.388408 0.104785 0.43421 13 13 13
-0.381806 0.103713 0.43174 20 20 20
-0.376131 0.10288 0.43021 45 45 45
-0.372826 0.102689 0.43132 19 19 19
-0.370658 0.10281 0.4337 15 15 15
-0.366242 0.102304 0.43342 18 18 18
-0.362565 0.102 0.43394 28 28 28
-0.358297 0.101524 0.43369 50 50 50
-0.355074 0.101339 0.43465 36 36 36
-0.351764 0.101127 0.43546 16 16 16
-0.348432 0.100905 0.43619 17 17 17
-0.344084 0.100384 0.43559 27 27 27
-0.337942 0.099327 0.43262 55 55 55
-0.336309 0.09959 0.43537 26 26 26
-0.336021 0.100258 0.43987 17 17 17
-0.333142 0.100158 0.44099 19 19 19
-0.325355 0.098569 0.43551 32 32 32
-0.322562 0.09848 0.43661 35 35 35
-0.319384 0.098272 0.43715 57 57 57
-0.316594 0.098181 0.43818 27 27 27
-0.313264 0.097919 0.43843 18 18 18
-0.311453 0.098132 0.44078 20 20 20
-0.304316 0.096656 0.43552 26 26 26
-0.299536 0.095912 0.43349 51 51 51
-0.296699 0.095783 0.43421 41 41 41
-0.295276 0.096111 0.437 19 19 19
-0.291511 0.095677 0.43629 19 19 19
-0.28834 0.095432 0.43642 24 24 24
-0.284473 0.09495 0.43544 39 39 39
-0.281917 0.094902 0.43643 44 44 44
-0.279953 0.095053 0.43831 66 66 66
-0.277015 0.094874 0.43866 28 28 28
-0.273251 0.094407 0.43765 20 20 20
-0.270157 0.094164 0.43765 21 21 21
-0.266139 0.093593 0.4361 22 22 22
-0.262005 0.09297 0.43428 25 25 25
-0.258949 0.092722 0.43419 32 32 32
-0.256125 0.092553 0.43444 24 24 24
-0.25371 0.09253 0.43537 24 24 24
-0.250517 0.09222 0.43493 25 25 25
-0.247841 0.092097 0.43534 27 27 27
-0.244502 0.091722 0.43455 42 42 42
-0.24375 0.09232 0.43836 39 39 39
-0.24161 0.092399 0.43969 67 67 67
-0.239449 0.092472 0.44099 39 39 39
-0.235031 0.091665 0.43806 26 26 26
-0.230622 0.090847 0.43505 26 26 26
-0.22804 0.090738 0.43542 27 27 27
-0.225162 0.090508 0.43519 34 34 34
-0.221681 0.090029 0.43374 46 46 46
-0.219062 0.089894 0.43394 66 66 66
-0.217135 0.090043 0.43548 32 32 32
-0.214176 0.089762 0.43494 31 31 31
-0.211008 0.089387 0.43393 32 32 32
-0.207971 0.089059 0.43312 34 34 34
-0.205841 0.089118 0.43418 44 44 44
-0.204735 0.089625 0.43742 40 40 40
-0.202899 0.089822 0.43914 56 56 56
-0.20067 0.089846 0.44001 61 61 61
-0.197778 0.089571 0.4394 35 35 35
-0.193606 0.088703 0.43585 35 35 35
-0.190515 0.088316 0.43465 38 38 38
-0.187477 0.087944 0.43351 39 39 39
-0.18441 0.08755 0.43224 46 46 46
-0.181983 0.087454 0.43243 55 55 55
-0.179607 0.08738 0.43272 70 70 70
-0.178001 0.087684 0.43487 51 51 51
-0.175396 0.087497 0.43457 44 44 44
-0.172741 0.08728 0.43412 47 47 47
-0.170063 0.087045 0.43356 50 50 50
-0.167333 0.086777 0.43282 51 51 51
-0.165107 0.086767 0.43336 61 61 61
-0.165043 0.087909 0.43965 41 41 41
-0.162779 0.087894 0.44015 75 75 75
-0.16049 0.087864 0.44057 66 66 66
-0.157993 0.087719 0.4404 48 48 48
-0.153339 0.086354 0.43409 50 50 50
-0.150193 0.085812 0.43189 53 53 53
-0.14789 0.085742 0.43205 57 57 57
-0.146 0.085914 0.43343 57 57 57
-0.144066 0.086064 0.43468 62 62 62
-0.14198 0.086127 0.43549 64 64 64
-0.139783 0.086123 0.43596 82 82 82
-0.138075 0.086426 0.43797 53 53 53
-0.134075 0.08528 0.43262 62 62 62
-0.131669 0.085127 0.4323 65 65 65
-0.129264 0.084969 0.43194 71 71 71
-0.127038 0.084926 0.43216 78 78 78
-0.125124 0.085094 0.43344 71 71 71
-0.12484 0.086396 0.44049 49 49 49
-0.122998 0.086647 0.44219 96 96 96
-0.120821 0.086666 0.4427 92 92 92
-0.11868 0.086713 0.44334 70 70 70
-0.11375 0.084685 0.43336 65 65 65
-0.111208 0.084391 0.43223 80 80 80
-0.108921 0.084283 0.43204 81 81 81
-0.106793 0.084296 0.43247 86 86 86
-0.104535 0.084204 0.43235 88 88 88
-0.10199 0.083874 0.43099 92 92 92
-0.100193 0.084157 0.43278 78 78 78
-0.097904 0.08403 0.43246 79 79 79
-0.095398 0.083707 0.43111 96 96 96
-0.093199 0.083645 0.43111 106 106 106
-0.091036 0.083613 0.43124 108 108 108
-0.088717 0.083433 0.43061 106 106 106
-0.086505 0.083347 0.43045 110 110 110
-0.084674 0.083633 0.43221 91 91 91
-0.084445 0.085557 0.44243 61 61 61
-0.081974 0.085251 0.44112 112 112 112
-0.079952 0.08541 0.4422 109 109 109
-0.07769 0.085312 0.44196 95 95 95
-0.074357 0.083998 0.4354 80 80 80
-0.071598 0.083275 0.43188 114 114 114
-0.069264 0.083018 0.43077 118 118 118
-0.067035 0.082875 0.43025 123 123 123
-0.06494 0.082892 0.43056 131 131 131
-0.062936 0.083031 0.43148 124 124 124
-0.061286 0.083663 0.43497 89 89 89
-0.059324 0.083899 0.43639 136 136 136
-0.057175 0.083878 0.43647 101 101 101
-0.054415 0.082925 0.43169 130 130 130
-0.052234 0.082813 0.43128 140 140 140
-0.050085 0.082744 0.43108 146 146 146
-0.047918 0.082639 0.43069 155 155 155
-0.045824 0.082654 0.43092 152 152 152
-0.04413 0.083428 0.4351 97 97 97
-0.042586 0.084578 0.44124 113 113 113
-0.040501 0.08472 0.44211 142 142 142
-0.038353 0.084738 0.44233 142 142 142
-0.036234 0.084824 0.4429 116 116 116
-0.033222 0.0827 0.43192 110 110 110
-0.031033 0.082476 0.43085 162 162 162
-0.028918 0.082429 0.4307 156 156 156
-0.026813 0.082407 0.43067 164 164 164
-0.024697 0.082346 0.43043 173 173 173
-0.022598 0.082333 0.43044 163 163 163
-0.020741 0.083291 0.43552 111 111 111
-0.018613 0.083252 0.43538 161 161 161
-0.016541 0.083486 0.43666 107 107 107
-0.014221 0.082357 0.4308 161 161 161
-0.012132 0.082403 0.43108 181 181 181
-0.010022 0.082301 0.43058 182 182 182
-0.007946 0.082493 0.43161 186 186 186
-0.005834 0.082304 0.43065 185 185 185
-0.003793 0.08349 0.43687 120 120 120
-0.001682 0.084183 0.4405 130 130 130
0.000462 0.084455 0.44193 161 161 161
0.002615 0.084589 0.44262 141 141 141
0.004773 0.08468 0.44309 99 99 99
0.006885 0.084145 0.44027 60 60 60
0.008924 0.083193 0.43526 89 89 89
0.011017 0.083009 0.43427 66 66 66
0.013077 0.082682 0.43252 51 51 51
0.015128 0.082388 0.43093 50 50 50
0.01718 0.082173 0.42976 61 61 61
0.019394 0.082697 0.43244 56 56 56
0.021537 0.082847 0.43316 88 88 88
0.023582 0.082624 0.43192 65 65 65
0.02616 0.084154 0.43983 21 21 21
0.028762 0.085521 0.44689 7 7 7
0.030815 0.08518 0.44502 6 6 6
0.032801 0.08471 0.44245 6 6 6
0.03496 0.084718 0.44239 6 6 6
0.037325 0.085195 0.44476 7 7 7
0.039633 0.085497 0.44622 8 8 8
0.042035 0.08596 0.4485 8 8 8
0.044137 0.085793 0.44749 9 9 9
0.046039 0.085272 0.44463 7 7 7
0.04805 0.084991 0.44301 8 8 8
0.050829 0.086033 0.44828 9 9 9
0.052971 0.085955 0.44771 8 8 8
0.056176 0.087542 0.4558 7 7 7
0.058206 0.087245 0.45407 5 5 5
0.059726 0.086235 0.44862 5 5 5
0.061286 0.08535 0.44382 4 4 4
0.063213 0.08502 0.44191 4 4 4
0.065254 0.084861 0.44087 5 5 5
0.067258 0.084666 0.43964 10 10 10
0.069286 0.084511 0.43861 18 18 18
0.071496 0.08458 0.43874 32 32 32
0.073842 0.084803 0.43966 37 37 37
0.076495 0.085356 0.44228 31 31 31
0.07971 0.086487 0.44789 22 22 22
0.082627 0.087243 0.45154 20 20 20
0.084516 0.086902 0.4495 33 33 33
0.085829 0.086002 0.44456 52 52 52
0.087608 0.085602 0.44221 40 40 40
0.087686 0.083599 0.43158 83 83 83
0.089936 0.083714 0.43188 106 106 106
0.092209 0.083843 0.43225 106 106 106
0.094369 0.083866 0.43206 100 100 100
0.096557 0.083913 0.43198 94 94 94
0.099482 0.084585 0.43512 81 81 81
0.101777 0.084704 0.43539 91 91 91
0.103896 0.084674 0.4349 102 102 102
0.105614 0.084325 0.43276 83 83 83
0.107517 0.084135 0.43143 89 89 89
0.110176 0.084533 0.4331 84 84 84
0.112054 0.084328 0.43168 78 78 78
0.114771 0.084749 0.43345 74 74 74
0.117293 0.085014 0.43442 61 61 61
0.121355 0.086365 0.44092 66 66 66
0.123627 0.086417 0.44077 87 87 87
0.125938 0.086494 0.44074 92 92 92
0.128156 0.086506 0.44037 49 49 49
0.127346 0.084508 0.42977 74 74 74
0.129455 0.08448 0.42919 68 68 68
0.131732 0.084563 0.42916 59 59 59
0.134081 0.084687 0.42934 41 41 41
0.136326 0.084743 0.42916 24 24 24
0.138475 0.084739 0.42866 13 13 13
0.140196 0.084477 0.42686 14 14 14
0.138647 0.082282 0.41529 15 15 15
0.140735 0.082278 0.41479 15 15 15
0.143222 0.082505 0.41544 15 15 15
0.143484 0.081462 0.40969 14 14 14
0.141422 0.079148 0.39756 13 13 13
0.139743 0.07711 0.38684 10 10 10
0.138128 0.075164 0.37659 11 11 11
0.137838 0.073982 0.37019 10 10 10
0.138888 0.073542 0.3675 10 10 10
0 0 0 0 0 0
0.13826 0.071288 0.35527 9 9 9
0 0 0 0 0 0
0 0 0 0 0 0
0 0 0 0 0 0
0 0 0 0 0 0
0.055394 0.026804 0.13261 23 23 23
0.055244 0.026406 0.13045 31 31 31
0.056109 0.026497 0.13069 37 37 37
0.055775 0.026027 0.12817 36 36 36
0.056327 0.025976 0.12772 29 29 29
0.058738 0.026774 0.13142 19 19 19
0.060848 0.027418 0.13436 15 15 15
0.062194 0.027707 0.13555 16 16 16
0.06341 0.027932 0.13642 13 13 13
0.069413 0.030238 0.14742 11 11 11
0.075283 0.032435 0.15785 8 8 8
0.083724 0.035681 0.17333 7 7 7
0.087648 0.036953 0.17918 7 7 7
0.091116 0.038007 0.18395 7 7 7
0.096215 0.039713 0.19184 6 6 6
0.096827 0.03955 0.19069 7 7 7
0.096614 0.039058 0.18794 7 7 7
0.09749 0.039011 0.18734 7 7 7
0.098083 0.038853 0.1862 8 8 8
0.093118 0.036518 0.17465 8 8 8
0.091923 0.035693 0.17035 8 8 8
0.085619 0.032921 0.15678 8 8 8
0.083411 0.031761 0.15093 8 8 8
0.070579 0.026617 0.12621 10 10 10
0.064836 0.024219 0.11458 25 25 25
0.056787 0.021013 0.09919 33 33 33
0.058121 0.021306 0.10034 31 31 31
0.061143 0.022207 0.10433 21 21 21
0.067688 0.024359 0.11417 14 14 14
0.071704 0.02557 0.11955 13 13 13
0.071826 0.025384 0.11839 13 13 13
0.071688 0.025109 0.11681 14 14 14
0.071583 0.024851 0.11531 15 15 15
0.071431 0.024581 0.11376 14 14 14
0.072943 0.024884 0.11486 16 16 16
0.06954 0.023519 0.10827 17 17 17
0.065466 0.021953 0.10078 18 18 18
0.066177 0.022004 0.10073 18 18 18
0.066544 0.02194 0.10015 19 19 19
0.065781 0.021508 0.0979 18 18 18
0.066021 0.021409 0.09716 18 18 18
0.066898 0.021516 0.09735 19 19 19
0.066433 0.021193 0.0956 18 18 18
0.065659 0.020778 0.09343 19 19 19
0.065023 0.020413 0.0915 19 19 19
0.066219 0.020624 0.09215 19 19 19
0.066845 0.020655 0.09199 18 18 18
0.06685 0.020496 0.09097 20 20 20
0.065227 0.019844 0.08778 20 20 20
0.063946 0.019305 0.0851 19 19 19
0.06538 0.019587 0.08604 20 20 20
0.065259 0.019403 0.08493 21 21 21
0.064727 0.019101 0.0833 22 22 22
0.063306 0.018543 0.08056 22 22 22
0.063007 0.018319 0.07929 23 23 23
0.060964 0.017595 0.07586 27 27 27
0.055302 0.015845 0.06805 72 72 72
0.053973 0.015352 0.06567 101 101 101
0.053708 0.015167 0.06461 122 122 122
0.054115 0.015173 0.06437 122 122 122
0.054176 0.015083 0.06372 171 171 171
0.055274 0.015281 0.06427 123 123 123
0.056005 0.015375 0.06438 96 96 96
0.06164 0.016805 0.07006 41 41 41
0.062153 0.016828 0.06983 33 33 33
0.061937 0.016655 0.06879 32 32 32
0.060244 0.01609 0.06614 32 32 32
0.059679 0.015832 0.06477 34 34 34
0.061314 0.016157 0.06577 34 34 34
0.060799 0.015915 0.06446 35 35 35
0.060867 0.015828 0.06378 36 36 36
0.060568 0.015647 0.06272 36 36 36
0.060379 0.015496 0.06179 37 37 37
0.05991 0.015277 0.06058 38 38 38
0.05984 0.015161 0.05979 37 37 37
0.060309 0.015182 0.05954 38 38 38
0.060474 0.015127 0.05898 37 37 37
0.060008 0.014916 0.05782 39 39 39
0.059831 0.014779 0.05695 38 38 38
0.060504 0.014852 0.05689 37 37 37
0.061577 0.015022 0.05719 37 37 37
0.061431 0.014895 0.05635 37 37 37
0.061369 0.014789 0.0556 37 37 37
0.061799 0.014802 0.0553 39 39 39
0.062961 0.01499 0.05563 39 39 39
0.06314 0.014942 0.05509 37 37 37
0.063008 0.014822 0.05429 38 38 38
0.062008 0.014501 0.05275 38 38 38
0.06193 0.014397 0.05202 38 38 38
0.060517 0.013987 0.05019 39 39 39
0.060023 0.013792 0.04915 39 39 39
0.059727 0.013645 0.04828 38 38 38
0.062807 0.014266 0.05013 38 38 38
0.062555 0.014127 0.04929 37 37 37
-0.998304 0.227969 0.76263 1 1 1
-1.003933 0.230548 0.77676 1 1 1
-1.010885 0.233462 0.79217 0 0 0
-1.003425 0.233062 0.7964 1 1 1
0 0 0 0 0 0
-0.954394 0.224236 0.77701 1 1 1
-0.95113 0.224768 0.78426 1 1 1
-0.91933 0.218524 0.76772 1 1 1
-0.905142 0.216418 0.7655 1 1 1
0 0 0 0 0 0
-0.90474 0.2189 0.7847 1 1 1
-0.890219 0.216678 0.78186 1 1 1
-0.880111 0.215511 0.78271 1 1 1
-0.87278 0.215013 0.78592 1 1 1
-0.858932 0.212895 0.78311 1 1 1
-0.839883 0.209453 0.77526 1 1 1
-0.819134 0.205543 0.76547 1 1 1
-0.792967 0.200216 0.75015 1 1 1
-0.787147 0.199993 0.75378 1 1 1
-0.800241 0.204602 0.77567 1 1 1
-0.794491 0.204422 0.77945 1 1 1
0 0 0 0 0 0
0 0 0 0 0 0
-0.4857 0.127398 0.49392 1 1 1
-0.414609 0.10946 0.42665 3 3 3
-0.408172 0.108468 0.42501 9 9 9
-0.407499 0.109005 0.42933 11 11 11
-0.404592 0.108948 0.43128 18 18 18
-0.401094 0.108729 0.43256 26 26 26
-0.396169 0.108118 0.43223 46 46 46
-0.392346 0.107802 0.43304 17 17 17
-0.386933 0.107042 0.43201 13 13 13
-0.379542 0.105721 0.42865 19 19 19
-0.375705 0.105378 0.42919 43 43 43
-0.373524 0.105498 0.43159 20 20 20
-0.370062 0.105255 0.43248 14 14 14
-0.365795 0.104779 0.43237 17 17 17
-0.361386 0.104255 0.43202 28 28 28
-0.35992 0.104578 0.43514 47 47 47
-0.356146 0.104231 0.43546 37 37 37
-0.351819 0.103716 0.43503 17 17 17
-0.347584 0.10322 0.43464 18 18 18
-0.342579 0.102487 0.4332 24 24 24
-0.338224 0.101939 0.43251 48 48 48
-0.33722 0.1024 0.43607 27 27 27
-0.335854 0.102758 0.43918 17 17 17
-0.334597 0.103154 0.44244 18 18 18
-0.325752 0.1012 0.43558 30 30 30
-0.323265 0.101206 0.4371 33 33 33
-0.320824 0.101226 0.43866 57 57 57
-0.318431 0.101263 0.44027 31 31 31
-0.316011 0.101291 0.44183 19 19 19
-0.310911 0.100453 0.43957 19 19 19
-0.304163 0.099066 0.43486 24 24 24
-0.299766 0.098428 0.43339 49 49 49
-0.297368 0.098441 0.43477 43 43 43
-0.29449 0.098294 0.43541 19 19 19
-0.293698 0.098847 0.43914 20 20 20
-0.289259 0.098172 0.4374 23 23 23
-0.284469 0.097365 0.43503 37 37 37
-0.282356 0.097468 0.4367 42 42 42
-0.28035 0.09761 0.43853 63 63 63
-0.277225 0.097362 0.43859 29 29 29
-0.274809 0.097361 0.43974 21 21 21
-0.271473 0.097031 0.43939 20 20 20
-0.267619 0.096508 0.43813 22 22 22
-0.262614 0.095557 0.4349 24 24 24
-0.25856 0.094938 0.43315 31 31 31
-0.256228 0.094946 0.43424 24 24 24
-0.254148 0.095048 0.43574 24 24 24
-0.251087 0.094782 0.43554 25 25 25
-0.248204 0.094578 0.43561 27 27 27
-0.246132 0.094683 0.43708 41 41 41
-0.243959 0.094751 0.43836 38 38 38
-0.242091 0.094939 0.4402 65 65 65
-0.239407 0.094808 0.44054 42 42 42
-0.234557 0.093808 0.43682 25 25 25
-0.231375 0.093463 0.43611 26 26 26
-0.228661 0.0933 0.43625 27 27 27
-0.225557 0.092975 0.4356 33 33 33
-0.222133 0.092509 0.43428 47 47 47
-0.219724 0.09246 0.4349 62 62 62
-0.217655 0.092555 0.43618 32 32 32
-0.21407 0.092001 0.43438 30 30 30
-0.210991 0.091654 0.43355 32 32 32
-0.208222 0.091436 0.43331 34 34 34
-0.206207 0.091548 0.43462 45 45 45
-0.20521 0.092119 0.4381 40 40 40
-0.203587 0.09242 0.44029 55 55 55
-0.200764 0.092176 0.43988 62 62 62
-0.198139 0.092018 0.43986 35 35 35
-0.194445 0.091354 0.43741 36 36 36
-0.190379 0.090499 0.43402 36 36 36
-0.18728 0.090088 0.43273 40 40 40
-0.184651 0.089896 0.43249 46 46 46
-0.181937 0.089657 0.432 53 53 53
-0.180192 0.089896 0.43381 68 68 68
-0.177856 0.089842 0.43419 49 49 49
-0.17566 0.089858 0.43491 44 44 44
-0.172812 0.089538 0.43398 47 47 47
-0.170232 0.089349 0.43368 49 49 49
-0.167246 0.08894 0.43229 52 52 52
-0.164938 0.088885 0.43261 59 59 59
-0.164459 0.089827 0.43778 40 40 40
-0.163168 0.090346 0.44089 69 69 69
-0.160778 0.090262 0.44105 63 63 63
-0.158182 0.090059 0.44061 46 46 46
-0.153389 0.088581 0.43392 48 48 48
-0.150476 0.088162 0.4324 52 52 52
-0.147961 0.087967 0.43196 54 54 54
-0.14577 0.087962 0.43244 56 56 56
-0.143975 0.088199 0.43411 58 58 58
-0.141976 0.088316 0.43518 61 61 61
-0.13963 0.088218 0.43518 82 82 82
-0.137109 0.088005 0.4346 54 54 54
-0.134163 0.087507 0.43261 59 59 59
-0.131659 0.087286 0.43197 63 63 63
-0.129209 0.087095 0.43147 70 70 70
-0.127114 0.08714 0.43212 74 74 74
-0.125106 0.087247 0.43308 69 69 69
-0.125605 0.089137 0.4429 48 48 48
-0.122965 0.088828 0.44178 93 93 93
-0.12099 0.088997 0.44303 89 89 89
-0.118415 0.088721 0.44206 70 70 70
-0.113871 0.086933 0.43353 64 64 64
-0.111523 0.086784 0.43317 78 78 78
-0.109249 0.086688 0.43306 84 84 84
-0.106992 0.086602 0.43299 83 83 83
-0.104705 0.086488 0.43277 87 87 87
-0.10246 0.086404 0.43269 89 89 89
-0.100258 0.086354 0.43278 76 76 76
-0.097898 0.086163 0.43215 79 79 79
-0.095443 0.085878 0.43103 91 91 91
-0.093179 0.085756 0.43073 98 98 98
-0.091104 0.085805 0.43128 102 102 102
-0.088921 0.085753 0.43132 102 102 102
-0.086636 0.085598 0.43083 104 104 104
-0.084543 0.08563 0.43127 90 90 90
-0.084554 0.087848 0.44272 60 60 60
-0.082378 0.087852 0.44301 104 104 104
-0.08001 0.087646 0.44224 109 109 109
-0.077613 0.087397 0.44124 94 94 94
-0.074947 0.08682 0.43857 77 77 77
-0.071723 0.085545 0.43237 113 113 113
-0.069494 0.085414 0.43193 110 110 110
-0.067102 0.085068 0.43041 122 122 122
-0.064966 0.085036 0.43046 131 131 131
-0.063088 0.08535 0.43225 120 120 120
-0.061251 0.085743 0.43445 93 93 93
-0.059257 0.085937 0.43562 134 134 134
-0.057129 0.085943 0.43584 96 96 96
-0.054403 0.085017 0.43132 123 123 123
-0.05227 0.084979 0.4313 133 133 133
-0.05012 0.084909 0.43111 140 140 140
-0.047938 0.084778 0.4306 151 151 151
-0.045795 0.084705 0.43038 145 145 145
-0.04405 0.085397 0.43404 95 95 95
-0.042586 0.086731 0.44097 112 112 112
-0.040433 0.08673 0.44109 145 145 145
-0.038325 0.086831 0.44173 143 143 143
-0.036188 0.086873 0.44206 111 111 111
-0.033246 0.084866 0.43196 110 110 110
-0.031046 0.084611 0.43076 153 153 153
-0.028924 0.084546 0.43053 145 145 145
-0.026822 0.084534 0.43055 154 154 154
-0.024707 0.084476 0.43034 160 160 160
-0.022633 0.08456 0.43085 141 141 141
-0.02076 0.085487 0.43564 101 101 101
-0.01863 0.085449 0.43551 149 149 149
-0.016492 0.085358 0.4351 105 105 105
-0.014215 0.084416 0.43035 157 157 157
-0.01211 0.084351 0.43005 168 168 168
-0.010045 0.084583 0.43127 171 171 171
-0.007943 0.084563 0.4312 180 180 180
-0.005837 0.084453 0.43066 175 175 175
-0.003786 0.085469 0.43585 109 109 109
-0.001689 0.086693 0.44211 121 121 121
0.000462 0.086524 0.44124 148 148 148
0.00263 0.087209 0.44473 123 123 123
0.004785 0.087049 0.4439 84 84 84
0.006882 0.086255 0.43983 58 58 58
0.008932 0.085382 0.43536 81 81 81
0.01101 0.085072 0.43375 57 57 57
0.013038 0.08453 0.43095 50 50 50
0.015083 0.084235 0.42939 56 56 56
0.017152 0.08413 0.42881 71 71 71
0.019141 0.083697 0.42654 48 48 48
0.02153 0.084926 0.43274 32 32 32
0.023875 0.085778 0.43701 13 13 13
0.026408 0.087112 0.44372 5 5 5
0.028855 0.087983 0.44807 4 4 4
0.030976 0.087804 0.44706 7 7 7
0.032779 0.086808 0.44188 10 10 10
0.035069 0.087146 0.4435 16 16 16
0.037384 0.087502 0.44519 22 22 22
0.039406 0.087171 0.44339 38 38 38
0.04146 0.086942 0.44209 56 56 56
0.043553 0.086813 0.4413 70 70 70
0.045667 0.086735 0.44076 50 50 50
0.04719 0.085593 0.4348 47 47 47
0.049026 0.085094 0.43211 71 71 71
0.051082 0.085001 0.43148 68 68 68
0.053423 0.085369 0.43318 49 49 49
0.056039 0.086134 0.43689 32 32 32
0.058885 0.087183 0.44202 18 18 18
0.060926 0.087008 0.44093 10 10 10
0.062977 0.086859 0.43998 5 5 5
0.065778 0.08772 0.44413 5 5 5
0.068051 0.087843 0.44454 4 4 4
0.070628 0.08834 0.44682 4 4 4
0.07305 0.088618 0.448 6 6 6
0.074271 0.087466 0.44193 11 11 11
0.076457 0.087484 0.44178 21 21 21
0.079387 0.088328 0.44578 22 22 22
0.082139 0.088935 0.44858 20 20 20
0.08538 0.090025 0.4538 16 16 16
0.087498 0.089906 0.45292 18 18 18
0.089335 0.089511 0.45064 21 21 21
0.087873 0.085909 0.43222 58 58 58
0.089958 0.085865 0.43171 93 93 93
0.092333 0.086093 0.43255 99 99 99
0.09446 0.086084 0.4322 95 95 95
0.096762 0.086231 0.43262 90 90 90
0.099574 0.086818 0.43523 76 76 76
0.101902 0.086966 0.43564 92 92 92
0.103797 0.086746 0.4342 97 97 97
0.105515 0.08639 0.43207 78 78 78
0.107937 0.086614 0.43283 83 83 83
0.110145 0.086659 0.43269 84 84 84
0.112332 0.086688 0.43246 77 77 77
0.114647 0.086812 0.4327 74 74 74
0.117468 0.087307 0.43477 60 60 60
0.121435 0.088622 0.44091 66 66 66
0.12383 0.088762 0.4412 85 85 85
0.1261 0.08881 0.44101 86 86 86
0.128287 0.088798 0.44052 50 50 50
0.127445 0.086726 0.42981 78 78 78
0.129677 0.086779 0.42963 73 73 73
0.131859 0.086798 0.42928 72 72 72
0.134237 0.086943 0.42954 64 64 64
0.137023 0.087344 0.43105 55 55 55
0.139496 0.087536 0.43153 46 46 46
0.141756 0.08759 0.43131 51 51 51
0.143488 0.087321 0.42949 25 25 25
0.1442 0.086449 0.42471 17 17 17
0.145312 0.08584 0.42121 14 14 14
0.144182 0.083942 0.41139 14 14 14
0.14593 0.083749 0.40994 14 14 14
0.141307 0.079958 0.39089 12 12 12
0.142165 0.07933 0.38733 11 11 11
0.141467 0.077862 0.37966 11 11 11
0.141803 0.076996 0.37494 10 10 10
0.14291 0.076565 0.37234 10 10 10
0.137264 0.072576 0.35245 9 9 9
0 0 0 0 0 0
0 0 0 0 0 0
0 0 0 0 0 0
0 0 0 0 0 0
0 0 0 0 0 0
0.056682 0.027783 0.13374 23 23 23
0.05673 0.027472 0.13204 29 29 29
0.056578 0.027074 0.12992 35 35 35
0.05652 0.026729 0.12806 34 34 34
0.058584 0.027383 0.13098 27 27 27
0.06017 0.027802 0.13276 17 17 17
0.061344 0.028024 0.13359 14 14 14
0.062862 0.028395 0.13513 14 14 14
0.064824 0.028957 0.13756 13 13 13
0.072795 0.032161 0.15252 11 11 11
0.07966 0.034813 0.16479 8 8 8
0.086052 0.037203 0.17578 7 7 7
0.091082 0.03896 0.18374 6 6 6
0.10461 0.044277 0.20841 6 6 6
0.098255 0.041155 0.19334 6 6 6
0.109877 0.04555 0.21357 6 6 6
0.105622 0.04334 0.2028 7 7 7
0.104243 0.042343 0.19774 7 7 7
0.101254 0.040719 0.18976 7 7 7
0.093587 0.037264 0.17329 8 8 8
0.092451 0.036452 0.16915 8 8 8
0.092351 0.03606 0.16697 8 8 8
0.086612 0.033495 0.15475 8 8 8
0.063636 0.024376 0.11236 16 16 16
0.061282 0.023253 0.10694 29 29 29
0.058412 0.021957 0.10075 29 29 29
0.060176 0.022412 0.10259 24 24 24
0.067654 0.024966 0.11401 16 16 16
0.070703 0.025855 0.11778 13 13 13
0.072895 0.026417 0.12004 12 12 12
0.073132 0.026267 0.11906 13 13 13
0.073699 0.026237 0.11861 14 14 14
0.074607 0.026328 0.11871 14 14 14
0.074452 0.026045 0.11713 16 16 16
0.072064 0.024993 0.11209 16 16 16
0.068448 0.023537 0.10527 17 17 17
0.067619 0.023055 0.10282 17 17 17
0.067106 0.022689 0.1009 17 17 17
0.067356 0.022584 0.10014 18 18 18
0.067102 0.022313 0.09865 18 18 18
0.067745 0.022343 0.09849 18 18 18
0.067792 0.022177 0.09745 18 18 18
0.067507 0.021906 0.09596 19 19 19
0.067325 0.021673 0.09464 20 20 20
0.066486 0.021233 0.09242 20 20 20
0.066986 0.021225 0.09208 20 20 20
0.067312 0.021162 0.0915 19 19 19
0.066826 0.020847 0.08983 18 18 18
0.065816 0.020375 0.08749 19 19 19
0.065624 0.02016 0.08627 19 19 19
0.066079 0.020147 0.0859 20 20 20
0.064309 0.01946 0.08267 21 21 21
0.063302 0.019013 0.08047 22 22 22
0.06295 0.018768 0.07913 24 24 24
0.062605 0.018528 0.07781 27 27 27
0.05555 0.01632 0.06827 62 62 62
0.05559 0.016214 0.06756 98 98 98
0.053943 0.015621 0.06482 111 111 111
0.053586 0.015407 0.06366 114 114 114
0.0536 0.015302 0.06296 151 151 151
0.055065 0.01561 0.06395 111 111 111
0.056145 0.015805 0.06446 94 94 94
0.061715 0.017253 0.07005 43 43 43
0.062824 0.017443 0.0705 31 31 31
0.062541 0.017246 0.06938 32 32 32
0.061651 0.016885 0.0676 33 33 33
0.060237 0.016387 0.06529 34 34 34
0.059773 0.016152 0.06403 34 34 34
0.060862 0.016337 0.06444 36 36 36
0.061554 0.016413 0.06441 37 37 37
0.06076 0.016096 0.06283 38 38 38
0.059606 0.015687 0.06091 36 36 36
0.058459 0.015286 0.05903 38 38 38
0.059181 0.015375 0.05905 38 38 38
0.060097 0.015514 0.05924 37 37 37
0.059978 0.015385 0.05842 39 39 39
0.059762 0.015233 0.0575 38 38 38
0.059075 0.014963 0.05615 38 38 38
0.059592 0.015001 0.05595 38 38 38
0.060681 0.01518 0.05627 37 37 37
0.061495 0.015289 0.05633 37 37 37
0.06151 0.0152 0.05564 38 38 38
0.061136 0.015016 0.05462 39 39 39
0.061817 0.015092 0.05454 41 41 41
0.06303 0.015295 0.05491 40 40 40
0.062413 0.015055 0.05369 39 39 39
0.062194 0.014914 0.05283 39 39 39
0.061321 0.014618 0.05143 39 39 39
0.060953 0.014446 0.05047 39 39 39
0.060301 0.014208 0.0493 41 41 41
0.061311 0.014362 0.04948 39 39 39
0.060288 0.014042 0.04804 39 39 39
0.06006 0.013909 0.04725 39 39 39
-1.025197 0.239913 0.78189 1 1 1
-1.015957 0.239093 0.78477 0 0 0
-1.007185 0.238374 0.78797 1 1 1
-1.015027 0.241602 0.80428 1 1 1
0 0 0 0 0 0
-0.945083 0.227553 0.76816 0 0 0
-0.931975 0.225702 0.7672 0 0 0
-0.915932 0.223115 0.76362 1 1 1
-0.920207 0.225476 0.77696 1 1 1
-0.921484 0.227126 0.78794 1 1 1
-0.91292 0.226356 0.79051 1 1 1
-0.889528 0.221879 0.77999 1 1 1
-0.878391 0.220423 0.77993 1 1 1
-0.88755 0.224074 0.79795 2 2 2
-0.871713 0.22142 0.79351 1 1 1
-0.836173 0.213699 0.77064 1 1 1
-0.818277 0.21042 0.76349 1 1 1
-0.791667 0.204845 0.74777 1 1 1
-0.778467 0.202692 0.74434 1 1 1
-0.793844 0.208 0.76832 1 1 1
-0.781442 0.206051 0.76551 1 1 1
0 0 0 0 0 0
0 0 0 0 0 0
0 0 0 0 0 0
-0.407486 0.110248 0.41873 3 3 3
-0.406309 0.110651 0.42248 8 8 8
-0.409119 0.112153 0.43043 11 11 11
-0.40717 0.112361 0.43343 17 17 17
-0.403022 0.111962 0.43405 25 25 25
-0.398422 0.111431 0.43411 41 41 41
-0.3927 0.110576 0.43285 16 16 16
-0.386313 0.109522 0.43075 12 12 12
-0.379724 0.108395 0.4283 16 16 16
-0.376183 0.108129 0.42919 42 42 42
-0.374152 0.108297 0.43178 23 23 23
-0.370771 0.108073 0.43277 14 14 14
-0.36468 0.107051 0.43052 17 17 17
-0.361233 0.106796 0.43131 27 27 27
-0.360083 0.107221 0.43482 43 43 43
-0.356865 0.107032 0.43582 42 42 42
-0.352469 0.106485 0.43532 17 17 17
-0.348157 0.105955 0.43485 17 17 17
-0.342546 0.105019 0.43266 23 23 23
-0.339292 0.104798 0.43338 47 47 47
-0.337538 0.10504 0.43599 28 28 28
-0.33642 0.105485 0.43943 17 17 17
-0.331186 0.104636 0.43745 18 18 18
-0.326049 0.103805 0.4355 27 27 27
-0.324239 0.104029 0.43794 31 31 31
-0.321533 0.103967 0.43916 55 55 55
-0.319164 0.104014 0.44082 32 32 32
-0.316162 0.103853 0.44157 18 18 18
-0.309066 0.102335 0.43651 19 19 19
-0.304932 0.10178 0.43552 24 24 24
-0.300041 0.100962 0.43335 47 47 47
-0.297276 0.100852 0.43419 43 43 43
-0.296582 0.101449 0.43807 18 18 18
-0.294229 0.101483 0.4395 20 20 20
-0.291387 0.101348 0.44018 23 23 23
-0.283584 0.09947 0.43325 39 39 39
-0.282185 0.099826 0.43601 39 39 39
-0.280399 0.10005 0.43819 58 58 58
-0.278089 0.100089 0.43954 29 29 29
-0.27608 0.100238 0.44136 20 20 20
-0.27348 0.100173 0.44222 20 20 20
-0.267666 0.09892 0.43781 21 21 21
-0.263651 0.098315 0.43622 24 24 24
-0.259104 0.097499 0.43367 33 33 33
-0.256481 0.097398 0.43427 23 23 23
-0.254161 0.097411 0.43537 24 24 24
-0.251095 0.097137 0.43517 24 24 24
-0.248228 0.096935 0.43526 27 27 27
-0.245589 0.096819 0.43573 43 43 43
-0.243709 0.097002 0.43753 38 38 38
-0.241926 0.097229 0.43952 62 62 62
-0.238935 0.096969 0.43929 42 42 42
-0.236166 0.096796 0.43944 27 27 27
-0.23387 0.096815 0.44044 26 26 26
-0.228851 0.095695 0.43625 28 28 28
-0.226069 0.095498 0.43623 33 33 33
-0.222116 0.094797 0.43389 46 46 46
-0.219974 0.094862 0.43503 60 60 60
-0.217319 0.094705 0.43515 32 32 32
-0.214174 0.094329 0.43424 30 30 30
-0.211244 0.094041 0.43372 32 32 32
-0.208764 0.093949 0.43409 33 33 33
-0.206457 0.093933 0.4348 40 40 40
-0.20583 0.094691 0.43908 40 40 40
-0.203783 0.094804 0.44037 53 53 53
-0.201608 0.09486 0.44138 59 59 59
-0.198385 0.094419 0.44006 35 35 35
-0.194537 0.093666 0.43728 35 35 35
-0.190782 0.092941 0.4346 37 37 37
-0.187724 0.092542 0.43342 40 40 40
-0.184634 0.092118 0.43212 43 43 43
-0.182402 0.092116 0.43277 52 52 52
-0.180094 0.092076 0.43324 65 65 65
-0.178336 0.09232 0.43504 50 50 50
-0.175784 0.092154 0.43489 43 43 43
-0.17327 0.092002 0.4348 45 45 45
-0.170232 0.091566 0.43335 47 47 47
-0.167544 0.091309 0.43273 50 50 50
-0.165376 0.091332 0.43344 59 59 59
-0.166143 0.092999 0.44194 40 40 40
-0.16317 0.09259 0.44057 71 71 71
-0.161084 0.092678 0.44157 63 63 63
-0.158674 0.092581 0.44167 44 44 44
-0.154338 0.091341 0.43629 46 46 46
-0.150852 0.090575 0.43317 48 48 48
-0.148098 0.090234 0.43205 52 52 52
-0.145583 0.090029 0.43158 57 57 57
-0.143464 0.090067 0.43226 60 60 60
-0.141766 0.090374 0.43423 61 61 61
-0.139737 0.090477 0.43521 81 81 81
-0.137144 0.090212 0.43441 53 53 53
-0.134392 0.089833 0.43305 60 60 60
-0.131496 0.089342 0.43114 63 63 63
-0.129428 0.089407 0.4319 68 68 68
-0.127245 0.089395 0.43227 73 73 73
-0.12529 0.089544 0.43342 69 69 69
-0.125364 0.091174 0.44174 48 48 48
-0.123076 0.091115 0.44187 92 92 92
-0.120797 0.09106 0.44202 86 86 86
-0.118704 0.091145 0.44283 70 70 70
-0.114393 0.089499 0.43522 61 61 61
-0.111835 0.089187 0.43408 75 75 75
-0.109607 0.089131 0.43418 81 81 81
-0.107328 0.089031 0.43406 83 83 83
-0.104679 0.088613 0.43237 83 83 83
-0.10231 0.088419 0.43177 85 85 85
-0.100144 0.088397 0.432 74 74 74
-0.097913 0.088315 0.43192 77 77 77
-0.095449 0.088015 0.43077 94 94 94
-0.0933 0.087998 0.43101 95 95 95
-0.091176 0.088004 0.43134 98 98 98
-0.088976 0.087936 0.4313 99 99 99
-0.086742 0.087829 0.43107 104 104 104
-0.084506 0.087716 0.43079 89 89 89
-0.084781 0.090271 0.44362 60 60 60
-0.082387 0.090043 0.44277 105 105 105
-0.080095 0.089917 0.44242 107 107 107
-0.07787 0.089862 0.4424 89 89 89
-0.074523 0.088472 0.43581 77 77 77
-0.071861 0.087836 0.43291 106 106 106
-0.069552 0.087607 0.43201 107 107 107
-0.067243 0.087363 0.43103 114 114 114
-0.064989 0.087178 0.43033 124 124 124
-0.063027 0.087384 0.43156 118 118 118
-0.061265 0.087891 0.43426 92 92 92
-0.059249 0.088059 0.43529 130 130 130
-0.057191 0.088173 0.43604 93 93 93
-0.054513 0.087304 0.43192 115 115 115
-0.052281 0.087106 0.43111 122 122 122
-0.050108 0.086997 0.43074 133 133 133
-0.047942 0.086888 0.43036 145 145 145
-0.045874 0.086958 0.43085 141 141 141
-0.044283 0.087979 0.43606 87 87 87
-0.042578 0.088867 0.4406 109 109 109
-0.04043 0.088876 0.44078 137 137 137
-0.038323 0.08898 0.44142 134 134 134
-0.036214 0.089094 0.4421 100 100 100
-0.033311 0.087144 0.43254 105 105 105
-0.031071 0.086782 0.43084 148 148 148
-0.028961 0.086756 0.43081 144 144 144
-0.026832 0.086664 0.43044 147 147 147
-0.024714 0.086598 0.4302 156 156 156
-0.022732 0.087039 0.43246 138 138 138
-0.02075 0.087567 0.43515 101 101 101
-0.018639 0.087612 0.43544 139 139 139
-0.016533 0.087697 0.43592 102 102 102
-0.014249 0.086718 0.4311 151 151 151
-0.012127 0.086563 0.43037 160 160 160
-0.010047 0.086703 0.4311 164 164 164
-0.007945 0.086675 0.43099 170 170 170
-0.00585 0.086736 0.43131 171 171 171
-0.003772 0.087263 0.43395 107 107 107
-0.00169 0.088886 0.44203 121 121 121
0.000463 0.088996 0.44258 133 133 133
0.002634 0.089533 0.44524 111 111 111
0.0048 0.089488 0.44501 71 71 71
0.006836 0.087807 0.43663 55 55 55
0.008922 0.087409 0.43462 72 72 72
0.010994 0.087055 0.43283 52 52 52
0.012993 0.086331 0.42919 52 52 52
0.014982 0.085746 0.42624 64 64 64
0.016791 0.084401 0.4195 60 60 60
0.018848 0.08446 0.41974 21 21 21
0.021379 0.086423 0.42943 8 8 8
0.023856 0.087836 0.43638 5 5 5
0.026237 0.088695 0.44056 6 6 6
0.02865 0.089523 0.44459 10 10 10
0.030468 0.088506 0.43944 26 26 26
0.032201 0.087394 0.43382 62 62 62
0.034207 0.087114 0.43232 98 98 98
0.03649 0.087529 0.43427 86 86 86
0.039327 0.089154 0.44221 98 98 98
0.041453 0.089083 0.44172 127 127 127
0.043579 0.089019 0.44127 130 130 130
0.045618 0.088792 0.44 88 88 88
0.047196 0.087728 0.43458 84 84 84
0.048782 0.086771 0.42968 135 135 135
0.05101 0.086988 0.43059 137 137 137
0.053156 0.087052 0.43074 131 131 131
0.055208 0.086964 0.43013 119 119 119
0.057279 0.08691 0.42968 106 106 106
0.059369 0.086889 0.42939 80 80 80
0.062444 0.088261 0.43597 33 33 33
0.064692 0.088412 0.43651 20 20 20
0.067904 0.08983 0.44329 9 9 9
0.070217 0.090006 0.44394 5 5 5
0.074063 0.092077 0.45391 4 4 4
0.076407 0.092216 0.45435 4 4 4
0.078081 0.091559 0.45086 4 4 4
0.079946 0.091158 0.44863 9 9 9
0.081822 0.09079 0.44656 20 20 20
0.084181 0.090963 0.44713 23 23 23
0.087703 0.092353 0.45368 14 14 14
0.089721 0.092129 0.45229 11 11 11
0.092215 0.092393 0.45328 28 28 28
0.090487 0.088514 0.43396 59 59 59
0.092427 0.088319 0.4327 82 82 82
0.094645 0.088393 0.43275 89 89 89
0.097107 0.088686 0.43387 88 88 88
0.099614 0.089008 0.43512 78 78 78
0.101931 0.08915 0.43547 92 92 92
0.104037 0.089104 0.43491 86 86 86
0.105936 0.088887 0.4335 76 76 76
0.10803 0.088839 0.4329 83 83 83
0.110223 0.088874 0.43271 81 81 81
0.112485 0.08896 0.43275 74 74 74
0.114629 0.088952 0.43233 73 73 73
0.118471 0.090238 0.43819 59 59 59
0.121473 0.090849 0.44075 68 68 68
0.12381 0.09095 0.44082 89 89 89
0.126097 0.091011 0.44069 83 83 83
0.128067 0.090846 0.43946 50 50 50
0.127776 0.089109 0.43063 74 74 74
0.129854 0.089054 0.42992 72 72 72
0.13217 0.089162 0.42999 68 68 68
0.134609 0.089348 0.43043 65 65 65
0.137349 0.089725 0.43178 58 58 58
0.140405 0.090293 0.43403 63 63 63
0.14218 0.090032 0.43229 87 87 87
0.144291 0.08999 0.43159 56 56 56
0.146084 0.089753 0.42995 48 48 48
0.147616 0.089364 0.42758 24 24 24
0.148888 0.088832 0.42451 17 17 17
0.144461 0.084964 0.40552 15 15 15
0.145794 0.084544 0.40301 12 12 12
0.144439 0.082598 0.39323 12 12 12
0.145104 0.081846 0.38914 11 11 11
0.14502 0.080697 0.38317 12 12 12
0.14694 0.080678 0.38256 11 11 11
0.148056 0.080225 0.37988 11 11 11
0.150255 0.080362 0.38 10 10 10
0 0 0 0 0 0
0 0 0 0 0 0
0 0 0 0 0 0
0 0 0 0 0 0
0.061259 0.030771 0.14443 17 17 17
0.057783 0.028677 0.13439 22 22 22
0.057116 0.028009 0.13105 29 29 29
0.057259 0.02775 0.12963 34 34 34
0.057958 0.027763 0.12948 34 34 34
0.059031 0.027953 0.13015 26 26 26
0.060355 0.028256 0.13133 17 17 17
0.062217 0.028802 0.13364 13 13 13
0.064971 0.029743 0.13777 13 13 13
0.067796 0.030696 0.14193 11 11 11
0.077655 0.034779 0.16051 10 10 10
0.082888 0.036724 0.16918 8 8 8
0.08973 0.039334 0.18086 7 7 7
0.11105 0.048169 0.22106 6 6 6
0.110574 0.047464 0.21741 6 6 6
0.114697 0.048728 0.22275 6 6 6
0.113608 0.047774 0.21795 6 6 6
0 0 0 0 0 0
0.106995 0.044096 0.20035 7 7 7
0 0 0 0 0 0
0.099928 0.040378 0.18267 7 7 7
0.09731 0.038939 0.17578 8 8 8
0.094179 0.037325 0.16812 7 7 7
0 0 0 0 0 0
0.062854 0.024442 0.10959 22 22 22
0.061245 0.023594 0.10554 25 25 25
0.060161 0.022962 0.10247 24 24 24
0.063803 0.024129 0.10742 19 19 19
0.069686 0.026115 0.11598 13 13 13
0.074149 0.027538 0.12199 12 12 12
0.076381 0.028115 0.12423 12 12 12
0.076396 0.027872 0.12284 13 13 13
0.077167 0.027907 0.12267 14 14 14
0.075054 0.026907 0.11796 14 14 14
0.072097 0.025625 0.11203 15 15 15
0.070518 0.02485 0.10835 15 15 15
0.069665 0.024342 0.10583 16 16 16
0.06925 0.023994 0.10402 17 17 17
0.068662 0.023593 0.10198 17 17 17
0.069336 0.023628 0.10183 17 17 17
0.068864 0.023275 0.10001 17 17 17
0.069321 0.02324 0.09955 17 17 17
0.068586 0.022809 0.0974 19 19 19
0.067985 0.022428 0.09547 19 19 19
0.06746 0.022079 0.09368 18 18 18
0.066887 0.021719 0.09185 19 19 19
0.067228 0.02166 0.09129 19 19 19
0.066938 0.0214 0.08989 18 18 18
0.065499 0.020779 0.08698 19 19 19
0.065797 0.020715 0.0864 20 20 20
0.066593 0.020807 0.08647 20 20 20
0.066496 0.020621 0.08538 21 21 21
0.064436 0.019834 0.08182 23 23 23
0.06366 0.01945 0.07993 24 24 24
0.062243 0.018878 0.07727 25 25 25
0.056191 0.016918 0.06898 56 56 56
0.055634 0.01663 0.06753 88 88 88
0.054715 0.016238 0.06567 103 103 103
0.054125 0.015948 0.06423 112 112 112
0.05402 0.015805 0.06338 133 133 133
0.055371 0.016086 0.06423 108 108 108
0.056209 0.016216 0.06446 86 86 86
0.060126 0.017226 0.06816 45 45 45
0.061914 0.017616 0.06939 30 30 30
0.061848 0.017477 0.06852 32 32 32
0.061445 0.017246 0.06729 33 33 33
0.060498 0.016866 0.06548 33 33 33
0.059614 0.016508 0.06378 33 33 33
0.060364 0.016605 0.06382 36 36 36
0.061363 0.016768 0.06412 37 37 37
0.061158 0.016603 0.06315 36 36 36
0.059829 0.016136 0.06105 37 37 37
0.059282 0.015886 0.05978 37 37 37
0.059657 0.015883 0.05944 38 38 38
0.060216 0.01593 0.05927 38 38 38
0.060006 0.015774 0.05835 38 38 38
0.059551 0.015555 0.05721 38 38 38
0.059726 0.015503 0.05668 39 39 39
0.059736 0.01541 0.056 39 39 39
0.060607 0.015538 0.05612 38 38 38
0.061376 0.015638 0.05613 38 38 38
0.061267 0.015515 0.05533 38 38 38
0.060514 0.015232 0.05397 41 41 41
0.060716 0.01519 0.05348 41 41 41
0.061019 0.015175 0.05307 40 40 40
0.060724 0.015011 0.05215 39 39 39
0.061422 0.015094 0.05208 40 40 40
0.061417 0.015004 0.05142 39 39 39
0.060747 0.014754 0.05022 41 41 41
0.061162 0.014768 0.04992 41 41 41
0.060905 0.014621 0.04907 39 39 39
0.060898 0.014535 0.04844 39 39 39
0.060984 0.014473 0.04789 41 41 41
-1.001244 0.239975 0.76234 1 1 1
0 0 0 0 0 0
-0.997054 0.241684 0.77872 1 1 1
-0.979924 0.238889 0.77515 1 1 1
-0.953768 0.233849 0.76413 1 1 1
-0.952749 0.234949 0.77309 1 1 1
-0.94603 0.234649 0.77746 0 0 0
0 0 0 0 0 0
-0.937256 0.235209 0.79003 1 1 1
-0.930796 0.234972 0.79457 1 1 1
-0.917446 0.232982 0.79311 1 1 1
-0.89486 0.22861 0.78337 0 0 0
-0.883139 0.226977 0.78286 1 1 1
-0.877845 0.226986 0.78794 1 1 1
-0.860909 0.223968 0.78241 1 1 1
-0.84299 0.220655 0.77567 1 1 1
-0.82728 0.217883 0.77066 1 1 1
-0.805978 0.213595 0.76009 0 0 0
-0.788814 0.210357 0.75305 1 1 1
-0.781965 0.209846 0.75565 2 2 2
-0.773951 0.209015 0.75702 1 1 1
0 0 0 0 0 0
0 0 0 0 0 0
0 0 0 0 0 0
-0.410005 0.113614 0.4207 2 2 2
-0.409058 0.114096 0.42472 8 8 8
-0.412729 0.115881 0.43361 10 10 10
-0.410334 0.115975 0.43618 15 15 15
