ply
format ascii 1.0
comment Generated by sampleExportPLY
element vertex 1733
property float x
property float y
property float z
element face 0
property list uchar int vertex_index
end_header
0.0146004 -0.220207 0.553738
0.0173977 -0.220198 0.553659
0.0201914 -0.220152 0.553479
0.0229938 -0.220201 0.553526
0.0257878 -0.220167 0.553355
0.0285913 -0.220213 0.553375
0.031383 -0.220168 0.553158
0.0342334 -0.220508 0.553898
0.0370311 -0.220483 0.553711
0.0397577 -0.220068 0.552536
0.0424979 -0.219778 0.551663
0.0453194 -0.219918 0.551862
0.0482024 -0.220323 0.552714
0.0510071 -0.220345 0.552597
0.0537434 -0.220085 0.55176
0.0565564 -0.220149 0.551728
0.0596694 -0.221319 0.554458
0.0624849 -0.221331 0.554272
0.0653767 -0.2216 0.554722
0.0681809 -0.221562 0.554393
0.0708624 -0.221144 0.553104
0.0736134 -0.220967 0.552407
0.076554 -0.22135 0.553102
0.0793704 -0.221361 0.552853
0.0821448 -0.221257 0.55231
0.0850139 -0.221407 0.552389
0.0878741 -0.221525 0.552377
0.0908606 -0.221944 0.553106
0.0935539 -0.221643 0.55203
0.0967608 -0.222541 0.553928
0.0996703 -0.222723 0.554033
0.102377 -0.222454 0.553004
0.105316 -0.22269 0.553223
0.107987 -0.222364 0.552033
0.110826 -0.222391 0.551708
0.113971 -0.223014 0.552852
0.11681 -0.223024 0.552463
0.119682 -0.223095 0.552215
0.122676 -0.223385 0.552496
0.125688 -0.223693 0.55281
0.128627 -0.223859 0.552763
0.131594 -0.224067 0.552806
0.134609 -0.224347 0.553015
0.137672 -0.224692 0.553371
0.140599 -0.224806 0.553146
0.143836 -0.225403 0.554095
0.146858 -0.225644 0.554158
0.149712 -0.225624 0.553566
0.15275 -0.225876 0.553629
0.155825 -0.226172 0.553789
0.158911 -0.226474 0.553948
0.162588 -0.227593 0.556089
0.165267 -0.227299 0.554764
0.168086 -0.227205 0.553917
0.171196 -0.2275 0.554005
0.174025 -0.227418 0.553163
0.177247 -0.227845 0.553543
0.180039 -0.227714 0.552555
0.183294 -0.228162 0.552961
0.186546 -0.228594 0.55331
0.18985 -0.229075 0.55376
0.192856 -0.229186 0.553305
0.195971 -0.229423 0.553137
0.200092 -0.230813 0.555731
0.202939 -0.230714 0.554723
0.206452 -0.231365 0.5555
0.209779 -0.231792 0.555724
0.212799 -0.231872 0.555101
0.215619 -0.231735 0.553941
0.218935 -0.232128 0.554036
0.222308 -0.23257 0.554229
0.226504 -0.23385 0.556399
0.229875 -0.234256 0.556468
0.233007 -0.234411 0.555923
0.23594 -0.234364 0.554885
0.239292 -0.23473 0.554806
0.242774 -0.235213 0.554986
0.246033 -0.23547 0.554614
0.249761 -0.236164 0.555252
0.253333 -0.236696 0.555487
0.256691 -0.237019 0.555212
0.259771 -0.237079 0.554302
0.262844 -0.237132 0.55336
0.2671 -0.238239 0.554854
0.270626 -0.238678 0.554767
0.2744 -0.239323 0.555138
0.278026 -0.239826 0.555156
0.281742 -0.240395 0.555303
0.285482 -0.240972 0.555445
0.28861 -0.241025 0.554359
0.29254 -0.24174 0.554772
0.297696 -0.243443 0.55742
0.301087 -0.243683 0.556688
0.304382 -0.243839 0.555745
0.308341 -0.244521 0.555974
0.312529 -0.245367 0.556549
0.316512 -0.246038 0.556697
0.320271 -0.246522 0.556396
0.324046 -0.24701 0.556076
0.328168 -0.247751 0.556296
0.331867 -0.248161 0.555746
0.336071 -0.248937 0.555984
0.339374 -0.249037 0.554687
0.344612 -0.250543 0.556487
0.347809 -0.25055 0.554926
0.351308 -0.250773 0.553815
0.355535 -0.251507 0.553805
0.360554 -0.252782 0.554949
0.364527 -0.253309 0.554412
0.367899 -0.253412 0.552917
0.373714 -0.255181 0.555021
0.378508 -0.256229 0.555508
0.383381 -0.257312 0.556031
0.387178 -0.25766 0.554927
0.391079 -0.258071 0.553926
0.397096 -0.259859 0.555838
0.402722 -0.261365 0.557091
0.406369 -0.261572 0.555534
0.41059 -0.262142 0.554712
0.415405 -0.263078 0.554624
0.419752 -0.263706 0.553842
0.425527 -0.265213 0.55486
0.431359 -0.266732 0.555846
0.435973 -0.26748 0.555173
0.441166 -0.268568 0.555162
0.446983 -0.270017 0.555839
0.451587 -0.270717 0.554923
0.456413 -0.271537 0.554209
0.461828 -0.272694 0.554129
0.467985 -0.274267 0.554837
0.473128 -0.275227 0.554248
0.477296 -0.27561 0.552449
0.483265 -0.27702 0.552657
0.487559 -0.277455 0.55087
0.497454 -0.281049 0.555281
0.502465 -0.281852 0.554099
0.507141 -0.282457 0.552481
0.511894 -0.283095 0.550882
0.517562 -0.284227 0.550193
0.52785 -0.287863 0.554268
0.531906 -0.288073 0.551676
0.535508 -0.288035 0.548578
0.544604 -0.290933 0.551009
0.551501 -0.292625 0.55108
0.555497 -0.292765 0.548182
0.566338 -0.296486 0.551921
0.57176 -0.29734 0.550249
0.579625 -0.299444 0.550837
0.584149 -0.299806 0.548173
0.59156 -0.301635 0.54815
0.601204 -0.304571 0.550071
0.608949 -0.306514 0.550132
0.616773 -0.308471 0.550165
0.622623 -0.309422 0.548364
0.633121 -0.312656 0.55056
0.642804 -0.315449 0.55191
0.647118 -0.315589 0.548586
0.658134 -0.318975 0.550871
0.667825 -0.321681 0.551918
0.675658 -0.323464 0.551341
0.682024 -0.324527 0.549514
0.691705 -0.327145 0.550289
0.69803 -0.328153 0.548327
0.703096 -0.328561 0.545356
0 0 0
0 0 0
0 0 0
0 0 0
0 0 0
0 0 0
0 0 0
0 0 0
0 0 0
0 0 0
0 0 0
0 0 0
0 0 0
0 0 0
-0.705434 -0.324567 0.547018
-0.690916 -0.319787 0.542541
-0.685418 -0.31915 0.545042
-0.678654 -0.317911 0.546507
-0.671175 -0.316321 0.547346
-0.660577 -0.313231 0.545549
-0.65395 -0.311998 0.546945
-0.646799 -0.310498 0.54785
-0.641007 -0.309636 0.549857
-0.63089 -0.306661 0.54807
-0.623121 -0.304796 0.548212
-0.6169 -0.303669 0.549645
-0.612066 -0.303215 0.552272
-0.602816 -0.300553 0.550833
-0.591556 -0.296848 0.547399
-0.586671 -0.296315 0.54975
-0.578086 -0.293893 0.548549
-0.570487 -0.291943 0.548161
-0.564181 -0.290634 0.548919
-0.558791 -0.289783 0.550493
-0.551009 -0.28767 0.549616
-0.544181 -0.286031 0.549574
-0.536128 -0.283721 0.548173
-0.531934 -0.283435 0.550626
-0.524274 -0.281285 0.549402
-0.518629 -0.280194 0.550182
-0.513749 -0.279504 0.551697
-0.504875 -0.276615 0.548805
-0.500712 -0.276285 0.550923
-0.495089 -0.275139 0.551366
-0.488155 -0.273242 0.550241
-0.484854 -0.273366 0.553133
-0.479987 -0.272603 0.55419
-0.472502 -0.27033 0.552116
-0.466955 -0.26914 0.552187
-0.459741 -0.266964 0.550171
-0.455988 -0.266781 0.552207
-0.451318 -0.266054 0.553075
-0.44486 -0.264254 0.551657
-0.44083 -0.263879 0.553164
-0.436111 -0.263083 0.553743
-0.429482 -0.261113 0.551799
-0.424657 -0.260218 0.552068
-0.420712 -0.259851 0.553419
-0.415771 -0.258859 0.553395
-0.410924 -0.257909 0.553417
-0.404768 -0.256116 0.551577
-0.401338 -0.256032 0.553375
-0.397643 -0.255776 0.55477
-0.391901 -0.254189 0.553234
-0.38657 -0.252842 0.552174
-0.381194 -0.251444 0.550953
-0.377283 -0.250996 0.551773
-0.37352 -0.25064 0.552763
-0.369244 -0.249931 0.55294
-0.36521 -0.249373 0.55342
-0.361316 -0.248903 0.554061
-0.357677 -0.248602 0.555047
-0.352638 -0.247313 0.553793
-0.34933 -0.247225 0.555197
-0.34446 -0.24602 0.55406
-0.338873 -0.244277 0.551667
-0.334794 -0.243597 0.551639
-0.33054 -0.242776 0.551261
-0.327339 -0.24272 0.552591
-0.322827 -0.241682 0.551658
-0.319767 -0.24172 0.553155
-0.316167 -0.241348 0.553689
-0.311273 -0.23997 0.551885
-0.307961 -0.239797 0.552823
-0.30519 -0.240046 0.554714
-0.301927 -0.239909 0.555694
-0.298 -0.239236 0.555408
-0.292801 -0.237517 0.552662
-0.28912 -0.237006 0.552698
-0.285537 -0.236565 0.552873
-0.282345 -0.236442 0.55377
-0.279019 -0.236203 0.554375
-0.275359 -0.235673 0.554276
-0.271543 -0.234997 0.553808
-0.268252 -0.234763 0.554363
-0.264697 -0.234292 0.554336
-0.260997 -0.233679 0.553953
-0.257366 -0.233115 0.553663
-0.253283 -0.232123 0.552334
-0.249923 -0.231778 0.552522
-0.2467 -0.231554 0.552978
-0.243191 -0.231051 0.552752
-0.239993 -0.230836 0.553194
-0.236786 -0.230607 0.553587
-0.233652 -0.230443 0.55412
-0.229937 -0.229695 0.553228
-0.226419 -0.229127 0.55275
-0.223271 -0.228923 0.553133
-0.220326 -0.228925 0.553999
-0.216482 -0.227979 0.552553
-0.213342 -0.22776 0.552849
-0.21066 -0.22803 0.554319
-0.207319 -0.227585 0.554036
-0.204331 -0.227518 0.55466
-0.20057 -0.226578 0.553137
-0.197616 -0.226535 0.553787
-0.194675 -0.226506 0.554457
-0.191484 -0.22618 0.554386
-0.188184 -0.225714 0.553956
-0.185194 -0.22561 0.554402
-0.181792 -0.224993 0.553569
-0.178687 -0.22473 0.553593
-0.175288 -0.224083 0.552657
-0.172883 -0.224705 0.554836
-0.169763 -0.224404 0.554726
-0.166323 -0.223661 0.55351
-0.163324 -0.223498 0.55371
-0.160481 -0.223544 0.554419
-0.157476 -0.223362 0.554549
-0.154648 -0.22343 0.555287
-0.151494 -0.22302 0.554827
-0.148079 -0.222202 0.553336
-0.145652 -0.222864 0.555517
-0.142176 -0.221916 0.553673
-0.139226 -0.221767 0.55381
-0.136719 -0.22233 0.555715
-0.133627 -0.221947 0.555243
-0.130291 -0.221134 0.553681
-0.127407 -0.221067 0.553976
-0.124632 -0.221193 0.554742
-0.121761 -0.221147 0.555067
-0.118678 -0.220708 0.554391
-0.115669 -0.220387 0.554003
-0.112828 -0.220378 0.554384
-0.109902 -0.220196 0.554323
-0.106702 -0.219445 0.552814
-0.103815 -0.219311 0.552848
-0.100908 -0.219129 0.552749
-0.0981982 -0.219375 0.55372
-0.0955582 -0.219796 0.555125
-0.0926801 -0.219679 0.55516
-0.089674 -0.219242 0.554374
-0.0867139 -0.218892 0.553798
-0.0837719 -0.218566 0.553271
-0.0809653 -0.218583 0.553601
-0.078186 -0.218677 0.554118
-0.0752117 -0.218213 0.553209
-0.0724026 -0.21821 0.553459
-0.0696791 -0.218476 0.55438
-0.0668224 -0.218329 0.554244
-0.0639311 -0.218051 0.553765
-0.0610428 -0.217758 0.553238
-0.0581914 -0.217575 0.552979
-0.0553812 -0.217535 0.553073
-0.0525732 -0.2175 0.553172
-0.0497295 -0.217305 0.552852
-0.0469722 -0.217488 0.553482
-0.0442084 -0.217661 0.55408
-0.0413805 -0.21752 0.553869
-0.0384989 -0.217057 0.552826
-0.0356689 -0.216834 0.552386
-0.0328976 -0.216961 0.552828
-0.0301174 -0.217048 0.553157
-0.0273478 -0.217236 0.553734
-0.024554 -0.217253 0.553866
-0.0217593 -0.217266 0.553978
-0.0189422 -0.217024 0.553432
-0.0161374 -0.216867 0.553089
-0.0133587 -0.217065 0.553646
-0.0105693 -0.217152 0.553909
-0.00777046 -0.217035 0.55364
-0.00497443 -0.21691 0.553341
-0.00218292 -0.216914 0.553365
0.00060878 -0.216946 0.553446
0.00340038 -0.216919 0.55337
0.00619352 -0.21697 0.553483
0.00899246 -0.217129 0.553862
0.0117815 -0.21703 0.553573
0.0145655 -0.216895 0.553182
0.0173704 -0.217063 0.553554
0.0201725 -0.217155 0.553725
0.0229719 -0.217199 0.553762
0.0257757 -0.217271 0.553859
0.0285636 -0.217207 0.553602
0.0313709 -0.217289 0.553706
0.0341521 -0.217192 0.553345
0.0369946 -0.217469 0.553929
0.0397369 -0.21716 0.553008
0.0425049 -0.217023 0.552515
0.0453143 -0.217101 0.552561
0.0481578 -0.217324 0.552965
0.0509223 -0.217185 0.55244
0.0536566 -0.216939 0.551631
0.0564011 -0.216756 0.550975
0.0595497 -0.21807 0.554113
0.062421 -0.218297 0.554475
0.0651415 -0.217999 0.553495
0.0680664 -0.218381 0.554232
0.0708055 -0.21816 0.553429
0.0735821 -0.218068 0.552942
0.0764993 -0.218383 0.553479
0.0792913 -0.218332 0.553075
0.0820546 -0.218207 0.552476
0.0848448 -0.21816 0.552064
0.0877857 -0.218491 0.552598
0.0905665 -0.218416 0.552092
0.0934541 -0.218594 0.552219
0.0963079 -0.218686 0.552115
0.099322 -0.219126 0.552879
0.102039 -0.218904 0.551962
0.104859 -0.218909 0.551608
0.107784 -0.219128 0.551783
0.110702 -0.219321 0.551879
0.113617 -0.219499 0.551927
0.116692 -0.219969 0.552697
0.119634 -0.220173 0.552788
0.122632 -0.220468 0.553093
0.125636 -0.22076 0.553381
0.12858 -0.220937 0.553366
0.131135 -0.22045 0.55168
0.134369 -0.221103 0.552835
0.137355 -0.221329 0.552908
0.140485 -0.221772 0.55351
0.143309 -0.221724 0.552877
0.146346 -0.222002 0.553041
0.149463 -0.222388 0.553463
0.152547 -0.22271 0.553714
0.155573 -0.22294 0.55372
0.158469 -0.222976 0.553235
0.161366 -0.223013 0.552738
0.164478 -0.22334 0.552946
0.167642 -0.223725 0.553286
0.170452 -0.223633 0.552433
0.173984 -0.224476 0.553874
0.1768 -0.224383 0.55299
0.179751 -0.224461 0.552516
0.182809 -0.224668 0.552345
0.186213 -0.225287 0.553174
0.18971 -0.225998 0.554213
0.192774 -0.22618 0.553935
0.195779 -0.226287 0.553461
0.199857 -0.227614 0.555952
0.202649 -0.227459 0.554807
0.205414 -0.227278 0.553586
0.209106 -0.228113 0.554824
0.212394 -0.228491 0.554931
0.215441 -0.228602 0.554376
0.218514 -0.228738 0.553865
0.222015 -0.229313 0.554399
0.225804 -0.230166 0.555586
0.229669 -0.231072 0.556881
0.232696 -0.231125 0.556099
0.2357 -0.231152 0.555241
0.238701 -0.231176 0.55436
0.242265 -0.231737 0.554751
0.245836 -0.232293 0.555106
0.249092 -0.23254 0.554705
0.253001 -0.233384 0.555708
0.256534 -0.233865 0.555825
0.259429 -0.233759 0.554529
0.263177 -0.234417 0.555026
0.267053 -0.235172 0.555728
0.270398 -0.235447 0.555275
0.273873 -0.235829 0.555054
0.277743 -0.236539 0.55558
0.281596 -0.237218 0.556011
0.284675 -0.237238 0.554876
0.288089 -0.237534 0.554366
0.291676 -0.237965 0.554147
0.296807 -0.239633 0.556781
0.300462 -0.240087 0.556565
0.304006 -0.240444 0.556099
0.307913 -0.241079 0.55625
0.311965 -0.241813 0.556602
0.315926 -0.242462 0.556731
0.319792 -0.243027 0.556638
0.323315 -0.243322 0.555902
0.327325 -0.243975 0.555955
0.330899 -0.244293 0.55522
0.334971 -0.24497 0.55527
0.338922 -0.245546 0.555063
0.343044 -0.246235 0.555078
0.347874 -0.247414 0.556164
0.351262 -0.247555 0.554886
0.355713 -0.248436 0.555236
0.359558 -0.248882 0.554579
0.363563 -0.249429 0.554117
0.367854 -0.250162 0.554033
0.371147 -0.250209 0.552399
0.376205 -0.251435 0.553333
0.382217 -0.253271 0.555562
0.386708 -0.254078 0.555486
0.391053 -0.254775 0.555133
0.395482 -0.255516 0.554834
0.40108 -0.256992 0.556089
0.405031 -0.257399 0.554985
0.411119 -0.259144 0.556723
0.415443 -0.25976 0.555984
0.419606 -0.260265 0.55497
0.423931 -0.260862 0.554111
0.428475 -0.261583 0.553475
0.434533 -0.26321 0.554703
0.438685 -0.263666 0.553414
0.445913 -0.265949 0.555904
0.450417 -0.266585 0.554893
0.455184 -0.267366 0.554137
0.460556 -0.268487 0.554037
0.466068 -0.269674 0.554015
0.471638 -0.270875 0.553968
0.478513 -0.272803 0.555343
0.483034 -0.27337 0.553891
0.488686 -0.274564 0.553657
0.493081 -0.27504 0.551923
0.501699 -0.277847 0.554802
0.506179 -0.27834 0.552991
0.51103 -0.279027 0.551521
0.517258 -0.280451 0.551453
0.526288 -0.283364 0.554234
0.531363 -0.284122 0.55273
0.53582 -0.284542 0.550522
0.545931 -0.287937 0.554002
0.549738 -0.287984 0.550971
0.554443 -0.288497 0.5488
0.563346 -0.291174 0.550682
0.570034 -0.292677 0.550274
0.578314 -0.294972 0.55129
0.584766 -0.29631 0.550457
0.589453 -0.296742 0.547902
0.597852 -0.299026 0.548718
0.603819 -0.300071 0.547211
0.615309 -0.303829 0.550587
0.620921 -0.304656 0.54859
0.630585 -0.307448 0.550086
0.636994 -0.308627 0.548648
0.643942 -0.31005 0.547616
0.654712 -0.313286 0.549734
0.668243 -0.317793 0.554002
0.673155 -0.318172 0.551023
0.681077 -0.31996 0.55047
0.690945 -0.322634 0.551402
0.698376 -0.324145 0.55031
0.700305 -0.323099 0.544881
0 0 0
0 0 0
0 0 0
0 0 0
0 0 0
0 0 0
0 0 0
0 0 0
0 0 0
0 0 0
0 0 0
0 0 0
0 0 0
0 0 0
-0.696328 -0.316253 0.541596
-0.689227 -0.314898 0.542862
-0.682975 -0.313918 0.544757
-0.677478 -0.313275 0.54723
-0.66833 -0.310925 0.546698
-0.658616 -0.308281 0.545602
-0.65304 -0.307553 0.547867
-0.646405 -0.306315 0.549205
-0.638876 -0.304634 0.54972
-0.632152 -0.303318 0.550861
-0.622359 -0.300504 0.549231
-0.615508 -0.299084 0.550094
-0.608704 -0.297668 0.550925
-0.593402 -0.292051 0.543892
-0.590222 -0.292366 0.547831
-0.584847 -0.291591 0.549706
-0.577693 -0.289912 0.549833
-0.568796 -0.287331 0.54818
-0.562787 -0.286184 0.549198
-0.556302 -0.284778 0.549667
-0.550168 -0.283534 0.550393
-0.543943 -0.282225 0.550938
-0.536424 -0.280223 0.550065
-0.528966 -0.278225 0.549127
-0.523784 -0.277405 0.550452
-0.51751 -0.275991 0.550543
-0.511045 -0.274454 0.550327
-0.505625 -0.27346 0.551141
-0.498713 -0.27164 0.550226
-0.493813 -0.270898 0.551436
-0.487986 -0.269632 0.551526
-0.481562 -0.268016 0.550837
-0.476132 -0.266932 0.551183
-0.471932 -0.266528 0.552883
-0.466864 -0.265624 0.553499
-0.461725 -0.264666 0.553952
-0.454703 -0.262605 0.552036
-0.449795 -0.261744 0.552582
-0.444135 -0.260427 0.552115
-0.438876 -0.259328 0.552055
-0.434446 -0.258705 0.552961
-0.428873 -0.257387 0.552331
-0.424223 -0.256606 0.552807
-0.419121 -0.255537 0.552616
-0.414427 -0.254701 0.552883
-0.408746 -0.25324 0.551745
-0.404945 -0.25293 0.55307
-0.401177 -0.252635 0.554394
-0.396945 -0.252041 0.555027
-0.391346 -0.250561 0.553665
-0.384956 -0.248546 0.551067
-0.380315 -0.247635 0.550868
-0.376929 -0.247534 0.552435
-0.372907 -0.247008 0.553025
-0.367306 -0.245419 0.551192
-0.36316 -0.244782 0.551459
-0.360316 -0.24502 0.553666
-0.356896 -0.244866 0.554966
-0.353106 -0.244454 0.555651
-0.347326 -0.242643 0.553119
-0.342191 -0.241254 0.551505
-0.338455 -0.240835 0.552074
-0.334341 -0.240136 0.551971
-0.330419 -0.239564 0.552128
-0.326111 -0.238697 0.551578
-0.323531 -0.239092 0.553917
-0.31886 -0.237933 0.552631
-0.315363 -0.237636 0.553319
-0.31134 -0.236933 0.553035
-0.307695 -0.236507 0.553369
-0.304561 -0.236468 0.554588
-0.301238 -0.236281 0.555438
-0.297282 -0.235587 0.555073
-0.292775 -0.234439 0.553608
-0.289091 -0.233932 0.553629
-0.285578 -0.233554 0.553933
-0.281947 -0.23307 0.553963
-0.278151 -0.232438 0.553619
-0.274682 -0.232068 0.553875
-0.271217 -0.231693 0.554099
-0.267667 -0.231237 0.554105
-0.263792 -0.230486 0.553384
-0.260309 -0.230064 0.553431
-0.256784 -0.229594 0.553342
-0.252965 -0.228848 0.552565
-0.249365 -0.228284 0.552207
-0.246133 -0.228048 0.55262
-0.243024 -0.227921 0.553284
-0.239786 -0.227668 0.553622
-0.236605 -0.227464 0.554063
-0.233031 -0.226872 0.553542
-0.229365 -0.226174 0.552741
-0.226089 -0.225848 0.55283
-0.223041 -0.225743 0.553444
-0.220003 -0.225647 0.554064
-0.216906 -0.225486 0.55451
-0.213874 -0.225389 0.555099
-0.21044 -0.22486 0.554605
-0.207354 -0.224693 0.554991
-0.203729 -0.223928 0.553883
-0.200522 -0.223609 0.553858
-0.197229 -0.223182 0.553551
-0.194029 -0.222849 0.553462
-0.190826 -0.222502 0.553323
-0.187696 -0.22223 0.553355
-0.184499 -0.22187 0.553153
-0.181431 -0.221656 0.553301
-0.178202 -0.221235 0.552917
-0.175348 -0.221275 0.553671
-0.172447 -0.221254 0.554263
-0.169358 -0.220987 0.554222
-0.166279 -0.220725 0.554181
-0.16318 -0.220426 0.554035
-0.159799 -0.219729 0.552873
-0.157112 -0.219978 0.554078
-0.154267 -0.220011 0.554726
-0.151072 -0.219536 0.554082
-0.147978 -0.219193 0.553758
-0.144852 -0.218787 0.553262
-0.141849 -0.218556 0.553195
-0.138985 -0.218534 0.553644
-0.136134 -0.21853 0.554128
-0.133206 -0.218401 0.554283
-0.130137 -0.218029 0.553811
-0.127234 -0.217926 0.554008
-0.124342 -0.217837 0.554231
-0.121246 -0.217378 0.553499
-0.118359 -0.217281 0.553676
-0.115555 -0.217336 0.554232
-0.112674 -0.217243 0.554399
-0.109737 -0.217036 0.554263
-0.106695 -0.216606 0.553545
-0.103694 -0.216237 0.552973
-0.100785 -0.216044 0.552839
-0.0980579 -0.216241 0.553694
-0.0952649 -0.216301 0.554185
-0.0924985 -0.216426 0.554835
-0.0895201 -0.216048 0.554183
-0.0865265 -0.215607 0.553359
-0.0837413 -0.215674 0.553826
-0.0809502 -0.215729 0.554255
-0.0780531 -0.215495 0.553931
-0.0752473 -0.215506 0.554224
-0.0724272 -0.215475 0.5544
-0.0696284 -0.215507 0.554729
-0.0667693 -0.215347 0.554554
-0.0638836 -0.215084 0.554103
-0.0609888 -0.214765 0.553495
-0.0581776 -0.214723 0.553594
-0.0553164 -0.214484 0.553172
-0.0524506 -0.2142 0.552625
-0.0496792 -0.214291 0.553035
-0.0469646 -0.214653 0.554136
-0.0441957 -0.214797 0.554664
-0.0413762 -0.214697 0.554553
-0.0384645 -0.214071 0.553072
-0.0356638 -0.214012 0.553047
-0.0328819 -0.214065 0.553301
-0.0301216 -0.214282 0.55397
-0.0273684 -0.2146 0.55489
-0.0245782 -0.214666 0.55515
-0.0217488 -0.214363 0.554445
-0.0189236 -0.214018 0.553621
-0.0161071 -0.21367 0.55278
-0.0133248 -0.213724 0.552969
-0.0105512 -0.213984 0.553682
-0.0077551 -0.21381 0.553262
-0.00496641 -0.213759 0.553153
-0.00218129 -0.213931 0.553608
0.000607828 -0.213933 0.553614
0.0033967 -0.213916 0.553564
0.00618648 -0.213946 0.553623
0.00898035 -0.214054 0.553878
0.0117771 -0.214163 0.554122
0.0145584 -0.214004 0.553664
0.0173283 -0.213754 0.552964
0.0201418 -0.214038 0.553631
0.0229579 -0.214277 0.554175
0.0257312 -0.214107 0.553652
0.0285204 -0.21409 0.553514
0.0313181 -0.214134 0.553523
0.0341302 -0.214262 0.55374
0.0369245 -0.214266 0.553629
0.0397058 -0.2142 0.553325
0.0425108 -0.214262 0.553342
0.0453275 -0.214371 0.553472
0.0481108 -0.21432 0.553176
0.0508759 -0.214197 0.552686
0.053654 -0.214139 0.552355
0.0564078 -0.213994 0.551791
0.0594599 -0.214941 0.554031
0.0621585 -0.214583 0.552896
0.0651816 -0.215327 0.554592
0.0678732 -0.21496 0.553414
0.0708192 -0.215396 0.554295
0.0736543 -0.215474 0.554243
0.0764219 -0.215356 0.553678
0.0792211 -0.215333 0.553345
0.0819094 -0.215019 0.552259
0.084767 -0.215157 0.552319
0.0876606 -0.215373 0.552572
0.0905679 -0.215609 0.552865
0.0932737 -0.215366 0.551917
0.0961528 -0.215525 0.551991
0.0989885 -0.215581 0.551789
0.101891 -0.215774 0.55193
0.104745 -0.215857 0.551776
0.107565 -0.215868 0.551428
0.110618 -0.216334 0.552232
0.113509 -0.216468 0.552175
0.116422 -0.216636 0.552195
0.119515 -0.217124 0.553016
0.1225 -0.217396 0.553279
0.125138 -0.217057 0.551972
0.127865 -0.21688 0.55107
0.130911 -0.217243 0.551527
0.134118 -0.21785 0.552592
0.137236 -0.218291 0.553221
0.140133 -0.218369 0.552918
0.14324 -0.218767 0.55341
0.146206 -0.218936 0.553314
0.149124 -0.219029 0.553012
0.152242 -0.219405 0.553413
0.15539 -0.219812 0.553877
0.158264 -0.219822 0.55333
0.161193 -0.219907 0.552957
0.164307 -0.220238 0.553191
0.16722 -0.220292 0.552715
0.169968 -0.22013 0.551686
0.173069 -0.220424 0.551787
0.17643 -0.221032 0.552661
0.179574 -0.221356 0.552806
0.182686 -0.221628 0.552811
0.185942 -0.222065 0.55321
0.189682 -0.223058 0.554975
0.192622 -0.223093 0.554344
0.19559 -0.22316 0.553777
0.199147 -0.223887 0.554834
0.201811 -0.223603 0.553368
0.204931 -0.223826 0.553144
0.208557 -0.224587 0.554235
0.2121 -0.225239 0.555034
0.215177 -0.225385 0.554574
0.218154 -0.225424 0.553833
0.221818 -0.226161 0.55479
0.224951 -0.226346 0.554376
0.228488 -0.226926 0.554912
0.231888 -0.227358 0.555065
0.235184 -0.227678 0.554928
0.238795 -0.228292 0.555489
0.242237 -0.228729 0.555601
0.24538 -0.228878 0.554995
0.248739 -0.229223 0.554844
0.252465 -0.229892 0.555459
0.255914 -0.230298 0.555417
0.25942 -0.230744 0.555452
0.262537 -0.230838 0.55462
0.265987 -0.231219 0.55446
0.268918 -0.231146 0.553192
0.273213 -0.232233 0.554679
0.276936 -0.232817 0.554936
0.280472 -0.233231 0.554769
0.284514 -0.234053 0.555546
0.287646 -0.234117 0.554502
0.292065 -0.235216 0.555885
0.295304 -0.235352 0.554966
0.29908 -0.235908 0.555016
0.302805 -0.236413 0.554921
0.307174 -0.237406 0.555942
0.311036 -0.237991 0.55598
0.315917 -0.239336 0.557761
0.319286 -0.23952 0.55681
0.322997 -0.239955 0.556416
0.326317 -0.240094 0.555311
0.330489 -0.240852 0.555609
0.334258 -0.241303 0.555172
0.338451 -0.24205 0.555385
0.342261 -0.242511 0.554913
0.347582 -0.244025 0.556814
0.351297 -0.244394 0.556065
0.354493 -0.244398 0.554461
0.358483 -0.244945 0.55406
0.362307 -0.245369 0.553352
0.366819 -0.246248 0.553633
0.371569 -0.24727 0.554199
0.376388 -0.24832 0.554786
0.380793 -0.249081 0.554688
0.386087 -0.250406 0.555803
0.390449 -0.251109 0.555496
0.394754 -0.251763 0.555044
0.398779 -0.25223 0.554141
0.403323 -0.253015 0.553899
0.408302 -0.254058 0.554177
0.414741 -0.255984 0.55633
0.419004 -0.256548 0.55547
0.422984 -0.25693 0.554181
0.427422 -0.257583 0.553433
0.432331 -0.258506 0.553224
0.43763 -0.259647 0.55343
0.444941 -0.261955 0.55606
0.448417 -0.261986 0.553807
0.452427 -0.262327 0.552169
0.458728 -0.263981 0.553245
0.464058 -0.265056 0.553047
0.470669 -0.266841 0.55427
0.475541 -0.26762 0.553346
0.48303 -0.26985 0.555359
0.487341 -0.270285 0.553617
0.495124 -0.272626 0.555716
0.500513 -0.273624 0.55501
0.504924 -0.274077 0.55315
0.51057 -0.275189 0.552569
0.516973 -0.276691 0.55271
0.52378 -0.278386 0.55317
0.529672 -0.279574 0.55256
0.534456 -0.280166 0.550719
0.541382 -0.281864 0.550998
0.547438 -0.283089 0.55029
0.554142 -0.284631 0.550138
0.560904 -0.286181 0.549941
0.568972 -0.288372 0.550909
0.57659 -0.290308 0.551319
0.584067 -0.292148 0.551481
0.589064 -0.292731 0.549224
0.593751 -0.293153 0.546636
0.601885 -0.295261 0.547148
0.6121 -0.298356 0.549418
0.619417 -0.300008 0.548965
0.628802 -0.302634 0.550239
0.635175 -0.303786 0.548787
0.64374 -0.305965 0.549151
0.653297 -0.308586 0.550253
0.664159 -0.311787 0.552328
0.670721 -0.312942 0.550734
0.677757 -0.314303 0.549483
0.688778 -0.317484 0.551371
0.694059 -0.317996 0.548593
0.700778 -0.319157 0.546926
0.70879 -0.32089 0.546215
0 0 0
0 0 0
0 0 0
0 0 0
0 0 0
0 0 0
0 0 0
0 0 0
0 0 0
0 0 0
0 0 0
0 0 0
-0.702867 -0.313198 0.541467
-0.695841 -0.31191 0.542842
-0.688464 -0.310448 0.543893
-0.681937 -0.309353 0.545569
-0.67448 -0.307821 0.546456
-0.667483 -0.306481 0.54766
-0.659759 -0.304788 0.548209
-0.651254 -0.302712 0.548031
-0.64823 -0.303173 0.552433
-0.638634 -0.300547 0.551186
-0.629992 -0.29834 0.550651
-0.621853 -0.296344 0.550453
-0.613949 -0.294436 0.550366
-0.607247 -0.293083 0.551272
-0.599234 -0.291075 0.550895
-0.588988 -0.28795 0.548329
-0.584409 -0.287573 0.550938
-0.574243 -0.284423 0.548176
-0.566536 -0.282457 0.547616
-0.560549 -0.281329 0.548621
-0.554719 -0.280265 0.549702
-0.54932 -0.279405 0.551136
-0.542126 -0.277615 0.550675
-0.534425 -0.275538 0.549576
-0.528188 -0.274193 0.549867
-0.523301 -0.273535 0.551482
-0.515717 -0.271448 0.550155
-0.510758 -0.270723 0.551527
-0.503215 -0.268608 0.550004
-0.498184 -0.267814 0.551121
-0.493602 -0.267251 0.552666
-0.485905 -0.264981 0.55062
-0.479933 -0.263626 0.550404
-0.475166 -0.262917 0.551483
-0.471199 -0.262644 0.553432
-0.467382 -0.262451 0.555512
-0.462943 -0.261904 0.5568
-0.453123 -0.258281 0.551477
-0.448691 -0.257696 0.552572
-0.444824 -0.257431 0.554309
-0.440078 -0.256648 0.55489
-0.432212 -0.254019 0.551419
-0.427594 -0.253273 0.551974
-0.422322 -0.252125 0.551605
-0.41753 -0.251247 0.551781
-0.411425 -0.249559 0.550124
-0.407672 -0.249282 0.551532
-0.404429 -0.249314 0.553594
-0.400956 -0.249203 0.555309
-0.395425 -0.247802 0.554107
-0.389448 -0.246095 0.552171
-0.38472 -0.245155 0.551906
-0.37985 -0.244107 0.551359
-0.37576 -0.243548 0.551876
-0.371442 -0.24283 0.551998
-0.366366 -0.241599 0.550913
-0.362471 -0.241132 0.551535
-0.359066 -0.240986 0.55286
-0.355597 -0.240794 0.554054
-0.350272 -0.239329 0.552285
-0.345253 -0.23805 0.550901
-0.341741 -0.237795 0.551855
-0.338017 -0.237387 0.552427
-0.334374 -0.237029 0.553086
-0.329512 -0.235791 0.551661
-0.326167 -0.235625 0.552715
-0.322252 -0.235041 0.55276
-0.318715 -0.234724 0.553408
-0.3152 -0.234417 0.554054
-0.311638 -0.234068 0.554577
-0.307659 -0.233396 0.55431
-0.303792 -0.232796 0.554186
-0.300073 -0.232298 0.55428
-0.296183 -0.231657 0.554005
-0.292439 -0.231117 0.553948
-0.288538 -0.230441 0.55354
-0.284426 -0.229579 0.552659
-0.280553 -0.228894 0.552178
-0.277215 -0.228636 0.552704
-0.274051 -0.228516 0.553546
-0.270785 -0.228308 0.554153
-0.266955 -0.227615 0.553564
-0.263263 -0.227024 0.553199
-0.259861 -0.226674 0.553399
-0.256403 -0.226264 0.553435
-0.253001 -0.225896 0.553552
-0.24929 -0.22524 0.552942
-0.245981 -0.224936 0.553178
-0.242871 -0.224808 0.553829
-0.239637 -0.224561 0.55417
-0.23597 -0.223896 0.553461
-0.232332 -0.223243 0.55276
-0.228966 -0.222837 0.552652
-0.225946 -0.222763 0.55335
-0.222967 -0.222726 0.554127
-0.219885 -0.222585 0.55463
-0.2171 -0.222745 0.555868
-0.213887 -0.222464 0.55599
-0.21053 -0.222023 0.555695
-0.206874 -0.22125 0.554554
-0.203694 -0.220971 0.554632
-0.200339 -0.220491 0.55419
-0.197079 -0.220104 0.553965
-0.193689 -0.219558 0.553322
-0.190557 -0.219291 0.553368
-0.187297 -0.218867 0.553002
-0.184325 -0.218771 0.553452
-0.181267 -0.218568 0.553617
-0.178187 -0.218333 0.553686
-0.175175 -0.218174 0.553934
-0.171984 -0.217783 0.553582
-0.169059 -0.217721 0.554049
-0.166134 -0.217657 0.554499
-0.162554 -0.216718 0.552706
-0.159537 -0.216508 0.55276
-0.156856 -0.216755 0.553966
-0.153903 -0.216629 0.554207
-0.150808 -0.216295 0.553904
-0.147703 -0.215933 0.553515
-0.144757 -0.215793 0.553682
-0.141658 -0.215416 0.553231
-0.138778 -0.215363 0.553597
-0.135943 -0.215378 0.554127
-0.133105 -0.21539 0.55464
-0.13012 -0.215159 0.554512
-0.126983 -0.214661 0.553686
-0.124052 -0.214496 0.553708
-0.121222 -0.214502 0.554157
-0.118317 -0.214371 0.554244
-0.115511 -0.21442 0.554783
-0.11249 -0.214062 0.554258
-0.109448 -0.213643 0.553565
-0.106593 -0.213578 0.553775
-0.103746 -0.213524 0.554005
-0.100838 -0.213339 0.553881
-0.0980699 -0.213448 0.554514
-0.0952003 -0.213336 0.554561
-0.0922635 -0.213062 0.554174
-0.0892062 -0.212483 0.552986
-0.0864264 -0.21255 0.553464
-0.0837286 -0.212829 0.554487
-0.0808736 -0.212714 0.554474
-0.0780218 -0.2126 0.554452
-0.0751785 -0.212501 0.554459
-0.0723239 -0.212361 0.554349
-0.0692624 -0.211578 0.552549
-0.0666611 -0.212195 0.554393
-0.0638245 -0.212083 0.554326
-0.0610125 -0.212046 0.554445
-0.0581803 -0.211933 0.554354
-0.0552965 -0.21161 0.553705
-0.0523333 -0.210933 0.552118
-0.0496078 -0.211192 0.552971
-0.0468962 -0.211545 0.554059
-0.0441506 -0.211779 0.554828
-0.041228 -0.211138 0.553295
-0.0384212 -0.21104 0.553175
-0.0356426 -0.211094 0.553443
-0.0328529 -0.211087 0.553539
-0.0300766 -0.211171 0.553868
-0.0273462 -0.211628 0.555165
-0.0245602 -0.211709 0.555466
-0.0216944 -0.211037 0.553779
-0.0189119 -0.211095 0.554001
-0.016116 -0.210996 0.553801
-0.013324 -0.210921 0.553652
-0.0105434 -0.211032 0.553985
-0.00774371 -0.210704 0.553154
-0.00495243 -0.210366 0.552287
-0.00217581 -0.210582 0.552866
0.000606163 -0.210675 0.553113
0.00339153 -0.210826 0.5535
0.00617757 -0.210863 0.553582
0.00896321 -0.210868 0.553568
0.0117596 -0.211064 0.554045
0.0145542 -0.211158 0.554248
0.0173017 -0.210649 0.552854
0.0200869 -0.210675 0.552859
0.0228733 -0.210707 0.552867
0.0256941 -0.211014 0.55359
0.0284912 -0.211085 0.553682
0.0312862 -0.21113 0.553695
0.0340822 -0.211173 0.553697
0.0368711 -0.211169 0.553564
0.0396326 -0.21102 0.553039
0.0424558 -0.211197 0.553362
0.0452853 -0.211382 0.553694
0.0481238 -0.211584 0.554063
0.0509021 -0.211515 0.55371
0.0536473 -0.211322 0.553024
0.0564904 -0.211515 0.553338
0.0594139 -0.211976 0.554344
0.0623252 -0.212355 0.555122
0.0649851 -0.21188 0.553661
0.0677432 -0.211753 0.553097
0.0704834 -0.211581 0.552409
0.073439 -0.212045 0.553368
0.0762393 -0.212042 0.5531
0.0789735 -0.211862 0.552361
0.0817973 -0.211927 0.552249
0.0846515 -0.212063 0.552313
0.0875428 -0.212281 0.552579
0.0903463 -0.212279 0.552262
0.093256 -0.212519 0.552564
0.0959359 -0.212236 0.551498
0.0989095 -0.212601 0.552103
0.10185 -0.212878 0.552467
0.104685 -0.212922 0.552219
0.10772 -0.213363 0.552988
0.110522 -0.213331 0.552518
0.113424 -0.213488 0.552527
0.116368 -0.213714 0.552706
0.119329 -0.21396 0.552922
0.12204 -0.213758 0.55197
0.124724 -0.213519 0.550914
0.12768 -0.213744 0.551044
0.130914 -0.214416 0.552311
0.134009 -0.214837 0.552921
0.137011 -0.215093 0.553092
0.140163 -0.21557 0.553821
0.143161 -0.215796 0.553891
0.146108 -0.215938 0.553732
0.148872 -0.215808 0.552865
0.152015 -0.216223 0.553381
0.155167 -0.216636 0.553878
0.1581 -0.216733 0.553555
0.161021 -0.21681 0.553168
0.164212 -0.217242 0.553674
0.16711 -0.217277 0.553155
0.16999 -0.217289 0.552564
0.17302 -0.217489 0.55244
0.176413 -0.218131 0.553425
0.17953 -0.218417 0.553488
0.182566 -0.218596 0.553268
0.185783 -0.218983 0.55356
0.189025 -0.219388 0.553882
0.192228 -0.219735 0.554043
0.195331 -0.21996 0.55388
0.19828 -0.220007 0.553255
0.201397 -0.220236 0.553075
0.204752 -0.220716 0.553509
0.208189 -0.221269 0.554107
0.211771 -0.221958 0.555031
0.21481 -0.222068 0.554487
0.217617 -0.221937 0.55333
0.220784 -0.222174 0.553073
0.224444 -0.222892 0.553998
0.227786 -0.223281 0.554084
0.231227 -0.223755 0.554366
0.234828 -0.22437 0.554976
0.239069 -0.225574 0.55702
0.241973 -0.225502 0.555895
0.244953 -0.225502 0.554931
0.248133 -0.225684 0.554398
0.251383 -0.225923 0.55399
0.255621 -0.227036 0.5557
0.259012 -0.227378 0.555502
0.262266 -0.227594 0.554977
0.265347 -0.227657 0.554059
0.268869 -0.228092 0.55403
0.272689 -0.228767 0.554561
0.276163 -0.229141 0.554338
0.279736 -0.229588 0.554272
0.283452 -0.23014 0.554437
0.287651 -0.231069 0.555484
0.29132 -0.231558 0.555446
0.29507 -0.2321 0.555512
0.298572 -0.232438 0.555066
0.302194 -0.232861 0.554801
0.305739 -0.233217 0.554351
0.309998 -0.234105 0.555138
0.315496 -0.235901 0.558046
0.318692 -0.235959 0.556808
0.321233 -0.235535 0.554415
0.324972 -0.235988 0.554068
0.329121 -0.236728 0.554363
0.333651 -0.237725 0.555228
0.337465 -0.238199 0.554839
0.341287 -0.238669 0.554414
0.344971 -0.239035 0.553719
0.348865 -0.239538 0.553312
0.354096 -0.240942 0.55495
0.357324 -0.24097 0.553386
0.362297 -0.242165 0.554466
0.365535 -0.242188 0.552832
0.371098 -0.243737 0.554646
0.375981 -0.244818 0.555348
0.379659 -0.245103 0.554208
0.384585 -0.246181 0.554825
0.389984 -0.24754 0.556032
0.393767 -0.24786 0.554864
0.397833 -0.248352 0.554044
0.402541 -0.249233 0.554054
0.408598 -0.250927 0.555825
0.413571 -0.251934 0.55602
0.417906 -0.25254 0.555286
0.422215 -0.25312 0.554455
0.426683 -0.253785 0.553771
0.432261 -0.255095 0.554444
0.43722 -0.256022 0.554234
0.44233 -0.257023 0.554134
0.446955 -0.257728 0.553351
0.451381 -0.258309 0.552254
0.457133 -0.259634 0.552699
0.463846 -0.261481 0.554191
0.468245 -0.262006 0.552823
0.476982 -0.264932 0.556456
0.481019 -0.265224 0.55449
0.485448 -0.265726 0.552922
0.489987 -0.26628 0.551416
0.498014 -0.268709 0.553727
0.503129 -0.269543 0.552684
0.509679 -0.271128 0.553122
0.516171 -0.27266 0.553385
0.522475 -0.274072 0.553339
0.527849 -0.27498 0.552218
0.533748 -0.276147 0.551562
0.540041 -0.277501 0.551218
0.546299 -0.278818 0.550742
0.55299 -0.280337 0.550604
0.560778 -0.282387 0.551442
0.567913 -0.284084 0.55152
0.573627 -0.285052 0.550128
0.582695 -0.287662 0.551842
0.587912 -0.28835 0.549809
0.593343 -0.289133 0.547922
0.602645 -0.29178 0.549511
0.608362 -0.292668 0.547734
0.616445 -0.294676 0.548007
0.624374 -0.296585 0.548043
0.634434 -0.299476 0.549833
0.641628 -0.300986 0.549033
0.650567 -0.303291 0.549639
0.657998 -0.304868 0.548885
0.667956 -0.30759 0.550146
0.677644 -0.310154 0.551072
0.685492 -0.31185 0.550415
0.693263 -0.313491 0.549632
0.700989 -0.315092 0.548753
0.709581 -0.31706 0.548482
0 0 0
0 0 0
0 0 0
0 0 0
0 0 0
0 0 0
0 0 0
0 0 0
0 0 0
0 0 0
0 0 0
0 0 0
-0.703982 -0.30955 0.543931
-0.694714 -0.30729 0.543569
-0.688595 -0.306404 0.545613
-0.680838 -0.304773 0.546313
-0.673483 -0.303304 0.547278
-0.667576 -0.302473 0.549377
-0.65908 -0.300452 0.549288
-0.653375 -0.299685 0.551467
-0.641241 -0.295942 0.548119
-0.632606 -0.293777 0.547625
-0.627033 -0.293015 0.549711
-0.620909 -0.291985 0.551267
-0.613371 -0.290272 0.551494
-0.602628 -0.28701 0.548711
-0.592237 -0.283876 0.546081
-0.586236 -0.282818 0.547383
-0.583577 -0.283369 0.551773
-0.570394 -0.278784 0.546096
-0.565846 -0.278386 0.548541
-0.559784 -0.277233 0.549456
-0.553998 -0.276202 0.550562
-0.548362 -0.275233 0.551739
-0.541989 -0.273878 0.552089
-0.532702 -0.271021 0.549336
-0.527506 -0.270221 0.550678
-0.520424 -0.268437 0.549956
-0.515119 -0.267551 0.551012
-0.510531 -0.267027 0.552766
-0.502873 -0.264879 0.551095
-0.497396 -0.263857 0.551701
-0.492345 -0.263049 0.552699
-0.484502 -0.260725 0.550449
-0.479604 -0.259965 0.551432
-0.474238 -0.258937 0.551798
-0.468835 -0.257874 0.552033
-0.466607 -0.258555 0.555964
-0.456463 -0.254826 0.550351
-0.450926 -0.253632 0.550133
-0.447229 -0.253463 0.552091
-0.44239 -0.25264 0.552583
-0.436403 -0.251142 0.551547
-0.431155 -0.25005 0.551347
-0.42454 -0.248142 0.549291
-0.420514 -0.247729 0.550492
-0.416008 -0.247024 0.551006
-0.411036 -0.246029 0.550828
-0.407069 -0.245624 0.551929
-0.403149 -0.245241 0.553045
-0.398365 -0.244322 0.552913
-0.393954 -0.243619 0.553226
-0.389419 -0.242826 0.553298
-0.383643 -0.241239 0.551515
-0.378588 -0.240083 0.550669
-0.37511 -0.239915 0.552055
-0.37151 -0.239666 0.553223
-0.36653 -0.238514 0.552274
-0.361934 -0.237594 0.551821
-0.357895 -0.237027 0.552151
-0.35389 -0.236472 0.552479
-0.349595 -0.235711 0.552292
-0.345789 -0.23527 0.552823
-0.341342 -0.23438 0.552268
-0.337717 -0.234043 0.552984
-0.33243 -0.232537 0.550905
-0.32845 -0.231926 0.550911
-0.325676 -0.232163 0.552907
-0.321968 -0.231732 0.553289
-0.318325 -0.23134 0.553739
-0.314826 -0.231046 0.554399
-0.31097 -0.23048 0.554383
-0.305913 -0.229006 0.552147
-0.302933 -0.229071 0.553597
-0.299445 -0.22875 0.554091
-0.295287 -0.227905 0.553292
-0.291271 -0.227153 0.552691
-0.287967 -0.226946 0.553394
-0.283561 -0.225858 0.551921
-0.279969 -0.2254 0.551964
-0.276865 -0.22533 0.552936
-0.273783 -0.225277 0.55393
-0.270275 -0.224868 0.554031
-0.266089 -0.223879 0.552679
-0.262954 -0.223762 0.553457
-0.25953 -0.223394 0.553597
-0.256024 -0.222946 0.553516
-0.252903 -0.222826 0.554231
-0.249549 -0.222496 0.554407
-0.245822 -0.221821 0.553703
-0.242549 -0.221544 0.553972
-0.239319 -0.2213 0.554307
-0.235683 -0.220669 0.553655
-0.231596 -0.219596 0.551869
-0.228929 -0.219858 0.553423
-0.225768 -0.219647 0.553769
-0.22293 -0.219748 0.554889
-0.219993 -0.219753 0.555752
-0.216269 -0.218961 0.554582
-0.213715 -0.219349 0.556386
-0.209713 -0.21824 0.554374
-0.206606 -0.218045 0.554668
-0.203459 -0.2178 0.55482
-0.199989 -0.217199 0.554047
-0.196535 -0.216597 0.553254
-0.193694 -0.216662 0.554151
-0.190612 -0.216456 0.55434
-0.18754 -0.216256 0.55453
-0.184432 -0.216007 0.554581
-0.181036 -0.215407 0.553716
-0.17819 -0.215453 0.554496
-0.17498 -0.215053 0.554116
-0.171814 -0.214694 0.553828
-0.168844 -0.214572 0.554136
-0.165843 -0.214405 0.554316
-0.162616 -0.213936 0.553701
-0.159535 -0.213645 0.553533
-0.156553 -0.213479 0.553675
-0.153567 -0.213302 0.553777
-0.150648 -0.213212 0.554092
-0.147673 -0.213037 0.554175
-0.144598 -0.212709 0.553845
-0.141495 -0.212326 0.553361
-0.13854 -0.212154 0.553412
-0.135779 -0.212277 0.554225
-0.133004 -0.212383 0.554979
-0.129706 -0.211641 0.553505
-0.126824 -0.21156 0.553749
-0.123952 -0.211492 0.554016
-0.121051 -0.211369 0.554127
-0.118266 -0.211449 0.55476
-0.115335 -0.211265 0.554687
-0.112063 -0.210432 0.552899
-0.109139 -0.210225 0.552742
-0.106332 -0.210239 0.553158
-0.103522 -0.210248 0.553549
-0.100851 -0.210547 0.554694
-0.0980845 -0.21066 0.555337
-0.0952128 -0.210545 0.555372
-0.0920693 -0.209804 0.553743
-0.0890342 -0.209272 0.552652
-0.0863215 -0.209487 0.553525
-0.0835267 -0.209511 0.553882
-0.0807857 -0.209676 0.554602
-0.0778302 -0.209276 0.553819
-0.0750346 -0.209292 0.554126
-0.0720657 -0.208808 0.553096
-0.0692355 -0.208702 0.55306
-0.0663598 -0.208444 0.55261
-0.0637408 -0.209006 0.554323
-0.0609482 -0.209024 0.554585
-0.0581555 -0.209044 0.55484
-0.0552343 -0.208579 0.553803
-0.0523639 -0.208268 0.553159
-0.0495632 -0.208214 0.553191
-0.0468048 -0.208343 0.553697
-0.044004 -0.208286 0.553701
-0.0411784 -0.208097 0.553345
-0.0384413 -0.20836 0.55418
-0.0356477 -0.208334 0.554236
-0.0328449 -0.208245 0.554117
-0.0300446 -0.208158 0.55399
-0.0272137 -0.207819 0.553185
-0.0244383 -0.207874 0.553421
-0.0216807 -0.208115 0.554138
-0.0188958 -0.208125 0.554235
-0.016124 -0.208309 0.554784
-0.0133365 -0.208325 0.554876
-0.0105431 -0.208233 0.554671
-0.00774482 -0.207943 0.553927
-0.00494953 -0.207453 0.552644
-0.00217055 -0.207268 0.552163
0.000604887 -0.207561 0.552944
0.00338828 -0.207861 0.553736
0.00617048 -0.20785 0.553689
0.0089571 -0.207948 0.553925
0.0117478 -0.208072 0.554218
0.0145381 -0.208143 0.55436
0.0173223 -0.208117 0.554238
0.0200409 -0.20742 0.552316
0.0228373 -0.2076 0.552722
0.0256878 -0.208178 0.554178
0.0284833 -0.208242 0.554254
0.0312177 -0.207887 0.553206
0.0340386 -0.208119 0.553711
0.0368372 -0.20819 0.553778
0.0395903 -0.208012 0.553173
0.0423954 -0.208112 0.553298
0.0452185 -0.208283 0.553601
0.0480696 -0.208556 0.554166
0.0509067 -0.208741 0.554487
0.0536496 -0.208541 0.553774
0.0564246 -0.208479 0.55342
0.0592809 -0.208709 0.553831
0.0621997 -0.209129 0.554733
0.0649738 -0.209047 0.554295
0.0676126 -0.208554 0.55276
0.0703543 -0.208405 0.552126
0.0731153 -0.208323 0.551658
0.0759543 -0.20846 0.551763
0.0788284 -0.208681 0.552078
0.0817071 -0.208898 0.552373
0.0845808 -0.209088 0.552587
0.0873923 -0.209118 0.552365
0.0902274 -0.2092 0.552272
0.0930065 -0.209152 0.551824
0.0959924 -0.209557 0.552563
0.0988632 -0.209696 0.552586
0.101864 -0.210094 0.553283
0.104879 -0.2105 0.55399
0.107642 -0.210393 0.553332
0.110516 -0.210502 0.553235
0.113414 -0.21065 0.553229
0.11628 -0.210732 0.553039
0.119114 -0.210755 0.55268
0.122033 -0.210924 0.552695
0.124843 -0.210899 0.552192
0.127689 -0.210936 0.55184
0.130682 -0.211209 0.552092
0.133739 -0.211572 0.552569
0.136639 -0.211677 0.552358
0.139995 -0.212469 0.553927
0.143014 -0.212728 0.554093
0.145669 -0.212445 0.552838
0.148624 -0.212604 0.552719
0.151837 -0.213118 0.553511
0.154983 -0.213521 0.554001
0.157932 -0.213642 0.553748
0.160814 -0.213672 0.553243
0.163902 -0.213968 0.553418
0.167102 -0.214398 0.553923
0.170133 -0.2146 0.553825
0.173359 -0.215038 0.554322
0.176665 -0.215558 0.555017
0.179561 -0.21557 0.554389
0.182312 -0.215409 0.553304
0.185519 -0.215784 0.553585
0.188687 -0.216103 0.553703
0.191801 -0.216352 0.553629
0.195026 -0.216716 0.553837
0.198242 -0.21706 0.553975
0.201206 -0.217122 0.553379
0.204221 -0.217236 0.552903
0.208002 -0.21815 0.554446
0.21115 -0.218385 0.554244
0.214199 -0.218512 0.553753
0.21716 -0.218547 0.553015
0.220243 -0.218702 0.552567
0.223654 -0.219175 0.552903
0.227276 -0.219839 0.553703
0.230678 -0.220276 0.553914
0.2344 -0.221004 0.554837
0.238322 -0.2219 0.556158
0.241547 -0.222133 0.555798
0.244456 -0.222073 0.55469
0.247621 -0.222243 0.554142
0.251138 -0.222723 0.554346
0.254702 -0.223232 0.554602
0.258158 -0.223636 0.554577
0.261253 -0.223721 0.553743
0.265088 -0.224431 0.554435
0.269225 -0.225377 0.555687
0.272722 -0.225773 0.555558
0.275785 -0.225805 0.554514
0.279538 -0.226395 0.554819
0.283337 -0.227009 0.555161
0.287201 -0.227661 0.55557
0.291046 -0.228285 0.555885
0.294809 -0.228832 0.555989
0.298731 -0.22949 0.556338
0.301751 -0.229449 0.554969
0.305034 -0.229606 0.554059
0.308751 -0.230084 0.553899
0.31329 -0.231158 0.555149
0.316812 -0.231469 0.554533
0.320271 -0.231727 0.553771
0.324316 -0.232401 0.553974
0.328474 -0.233143 0.554307
0.33265 -0.233882 0.554607
0.336481 -0.234368 0.554273
0.340206 -0.234771 0.553717
0.343974 -0.235196 0.553185
0.349821 -0.237023 0.555911
0.353439 -0.237319 0.555009
0.357445 -0.237868 0.554671
0.360614 -0.237856 0.552994
0.366138 -0.239383 0.554862
0.37082 -0.240339 0.555361
0.374858 -0.240863 0.554828
0.379364 -0.241677 0.554926
0.382742 -0.241765 0.553323
0.388323 -0.24323 0.554836
0.393583 -0.244472 0.55579
0.396891 -0.244491 0.553926
0.400587 -0.244747 0.552568
0.408568 -0.247595 0.557009
0.412607 -0.248027 0.555959
0.416355 -0.248279 0.554469
0.421029 -0.249075 0.554156
0.426846 -0.250529 0.555255
0.431961 -0.251552 0.555347
0.436893 -0.252452 0.55512
0.441273 -0.253022 0.554122
0.445873 -0.253709 0.553336
0.452519 -0.25554 0.554989
0.457108 -0.256191 0.554022
0.461013 -0.256451 0.55217
0.469122 -0.259029 0.555246
0.473925 -0.259757 0.55429
0.479733 -0.261021 0.554425
0.484252 -0.26157 0.552987
0.489648 -0.262582 0.552476
0.494686 -0.263388 0.551481
0.500367 -0.264523 0.551119
0.507321 -0.266309 0.552049
0.51533 -0.26862 0.55399
0.520855 -0.269614 0.553144
0.526507 -0.270659 0.552346
0.53265 -0.27194 0.551973
0.538942 -0.273279 0.551656
0.546793 -0.275384 0.552816
0.554584 -0.277431 0.553782
0.558367 -0.27746 0.550666
0.562105 -0.277465 0.547477
0.572872 -0.280916 0.551022
0.580444 -0.282766 0.551339
0.585989 -0.283611 0.549644
0.595659 -0.286428 0.551709
0.602184 -0.287706 0.550743
0.607548 -0.288417 0.548652
0.61449 -0.289862 0.547923
0.623085 -0.292064 0.54857
0.629023 -0.293 0.546798
0.642402 -0.297369 0.551365
0.649172 -0.298643 0.550126
0.655789 -0.299832 0.548701
0.665242 -0.302294 0.54957
0.677075 -0.3058 0.552273
0.682903 -0.306569 0.54999
0.687114 -0.306606 0.546395
0.699033 -0.310062 0.548863
0.705395 -0.311026 0.546879
0.714124 -0.313016 0.546674
0 0 0
0 0 0
0 0 0
0 0 0
0 0 0
0 0 0
0 0 0
0 0 0
0 0 0
0 0 0
-0.712559 -0.307309 0.545261
-0.702985 -0.304972 0.544747
-0.693862 -0.302803 0.544492
-0.688289 -0.302166 0.546972
-0.682829 -0.301571 0.549524
-0.673217 -0.299125 0.548677
-0.665858 -0.297655 0.549584
-0.655405 -0.294776 0.547844
-0.647232 -0.292892 0.547902
-0.638608 -0.29078 0.547488
-0.631139 -0.289171 0.547975
-0.62552 -0.288394 0.550009
-0.618765 -0.28708 0.550987
-0.608034 -0.283893 0.548308
-0.598457 -0.281207 0.546515
-0.591107 -0.27954 0.546635
-0.58482 -0.278357 0.547651
-0.578421 -0.277105 0.548484
-0.571626 -0.275645 0.548851
-0.564471 -0.273991 0.548774
-0.559368 -0.273318 0.550607
-0.553172 -0.272098 0.551291
-0.54481 -0.269789 0.549699
-0.536199 -0.267324 0.547705
-0.531207 -0.266642 0.549299
-0.524512 -0.26509 0.549043
-0.519124 -0.264181 0.550062
-0.514008 -0.263399 0.551291
-0.508245 -0.262272 0.551745
-0.501738 -0.260743 0.551289
-0.497564 -0.260413 0.553316
-0.490063 -0.258323 0.551546
-0.48394 -0.256936 0.551204
-0.47812 -0.255691 0.551105
-0.472032 -0.254282 0.550594
-0.467003 -0.253428 0.551226
-0.462557 -0.252879 0.552476
-0.456565 -0.251471 0.551796
-0.450486 -0.249992 0.550901
-0.446191 -0.24949 0.552105
-0.442201 -0.249151 0.553631
-0.435407 -0.247215 0.551555
-0.430165 -0.246136 0.551334
-0.425515 -0.245382 0.551792
-0.419789 -0.243991 0.550767
-0.415499 -0.243419 0.551546
-0.411265 -0.24287 0.552337
-0.406371 -0.24192 0.552173
-0.402309 -0.241454 0.553073
-0.397952 -0.240801 0.553509
-0.393849 -0.240293 0.554238
-0.388352 -0.238918 0.552928
-0.383647 -0.238012 0.552656
-0.378785 -0.236991 0.552078
-0.374735 -0.236466 0.552615
-0.371301 -0.236324 0.554018
-0.366501 -0.235302 0.553324
-0.361013 -0.233816 0.551495
-0.357191 -0.233394 0.552137
-0.353184 -0.232841 0.552439
-0.349289 -0.232353 0.552864
-0.345448 -0.231891 0.553323
-0.341105 -0.231082 0.552921
-0.336546 -0.230109 0.552094
-0.331766 -0.228966 0.550822
-0.328491 -0.22885 0.551989
-0.325096 -0.228647 0.552926
-0.321432 -0.228249 0.553364
-0.317235 -0.227461 0.55283
-0.313843 -0.227241 0.553649
-0.310196 -0.226829 0.553979
-0.305327 -0.225507 0.552053
-0.301643 -0.225042 0.552197
-0.298288 -0.224815 0.552902
-0.293351 -0.22338 0.550607
-0.290812 -0.223759 0.55276
-0.28705 -0.223195 0.552564
-0.283233 -0.222576 0.552208
-0.279566 -0.222063 0.552089
-0.27651 -0.222029 0.553141
-0.273482 -0.222017 0.554232
-0.26895 -0.22077 0.552217
-0.265122 -0.22008 0.551567
-0.261993 -0.21996 0.552326
-0.258594 -0.219609 0.552485
-0.255568 -0.219569 0.55341
-0.252416 -0.219419 0.554041
-0.249201 -0.219211 0.554507
-0.245536 -0.218596 0.553924
-0.242284 -0.218339 0.554229
-0.239099 -0.218137 0.554657
-0.235534 -0.217578 0.55416
-0.231402 -0.216475 0.552253
-0.228304 -0.216323 0.552754
-0.225526 -0.216474 0.554015
-0.222709 -0.216592 0.555177
-0.219631 -0.216454 0.555671
-0.216066 -0.215827 0.554891
-0.212085 -0.214762 0.552964
-0.209084 -0.214672 0.55353
-0.206149 -0.21465 0.554257
-0.202916 -0.214312 0.554153
-0.1993 -0.213554 0.552945
-0.196476 -0.213634 0.553893
-0.19361 -0.21367 0.554714
-0.190723 -0.213683 0.555464
-0.187575 -0.2134 0.55543
-0.18379 -0.212373 0.553441
-0.181214 -0.212731 0.555049
-0.177846 -0.212158 0.554211
-0.174839 -0.212003 0.554453
-0.17175 -0.211741 0.554401
-0.168655 -0.211462 0.554293
-0.16569 -0.21134 0.55458
-0.162656 -0.211124 0.554609
-0.159533 -0.210783 0.554298
-0.156424 -0.210449 0.553988
-0.153307 -0.210089 0.5536
-0.150463 -0.210099 0.554172
-0.147522 -0.209971 0.554368
-0.144315 -0.20945 0.553516
-0.141313 -0.209214 0.553401
-0.138443 -0.209166 0.553773
-0.135357 -0.208784 0.55325
-0.132359 -0.208524 0.553035
-0.129545 -0.208548 0.553562
-0.126442 -0.208098 0.552821
-0.123626 -0.208111 0.553295
-0.120848 -0.20819 0.553937
-0.117915 -0.208 0.55385
-0.11496 -0.20776 0.553621
-0.11201 -0.207517 0.553372
-0.10913 -0.207393 0.553428
-0.106241 -0.207247 0.553415
-0.103349 -0.207088 0.553354
-0.100512 -0.207032 0.55356
-0.0980607 -0.207789 0.555931
-0.0950326 -0.207333 0.555047
-0.0920932 -0.207049 0.554611
-0.089016 -0.206428 0.55326
-0.0861906 -0.206369 0.553405
-0.0833791 -0.206341 0.553621
-0.0803139 -0.205661 0.552079
-0.0776973 -0.206121 0.553589
-0.0748556 -0.205997 0.553518
-0.0720225 -0.205888 0.553478
-0.069151 -0.205656 0.553096
-0.0664608 -0.205967 0.554163
-0.0635413 -0.205562 0.553298
